# .PCD v0.7 - Point Cloud Data file format
VERSION 0.7
FIELDS x y z
SIZE 4 4 4
TYPE F F F
COUNT 1 1 1
WIDTH 1568
HEIGHT 1
VIEWPOINT 0 0 0 1 0 0 0
POINTS 1568
DATA ascii
-0.20396204 12.14427 2.6793582
-3.6427884 13.013838 2.6268675
-3.6260152 13.266988 2.673425
-3.5331581 13.246305 2.6648386
2.8491762 13.451147 2.6726618
2.6492243 13.52703 2.6793401
2.7428761 13.563437 2.6898346
7.3828449 13.564146 2.6147943
7.4921503 13.56606 2.623976
7.2227464 13.666799 2.6172984
0.63712639 13.79974 2.6852551
7.1542339 13.740594 2.6229744
6.8702393 13.809924 2.6116223
6.5367703 13.990448 2.6146274
6.2849588 14.123712 2.6174653
-2.7958343 -12.357061 2.7948217
-2.9349968 -12.270536 2.7831893
-2.9743516 -12.106256 2.750015
-15.116558 -12.054166 2.7723312
-3.0454738 -12.075468 2.7472146
-3.1410942 -11.839917 2.7021923
-3.0749912 -11.884493 2.7080088
-4.4363494 -11.657507 2.751523
-4.3691792 -11.696401 2.7543232
-3.875067 -11.666724 2.7118862
-4.5604291 -11.554955 2.7403212
-4.4933252 -11.592735 2.7426908
-14.967631 -11.491165 2.7057624
-4.6170444 -11.491416 2.73192
-16.919186 -9.1382732 2.7572858
-5.3344994 -8.3342924 2.7014971
-5.2563238 -8.3810244 2.7008388
1.4334873 5.2762647 2.7546985
1.2515297 5.3083372 2.7477994
1.3387442 5.311841 2.759948
1.5708998 5.3271065 2.798193
3.8878651 5.8714876 2.7003531
3.9269402 5.8521738 2.7025015
3.7735853 5.9737215 2.7094831
3.8496866 5.9316444 2.7116313
3.6050918 6.0720439 2.7078722
4.6488981 6.0295763 2.7096233
4.946754 6.0242958 2.7741661
4.4958806 6.1766362 2.7188437
4.397944 6.2006044 2.7054322
4.4738398 6.2262936 2.7285669
5.3666096 6.4345655 2.7418485
3.7142098 6.6953578 2.7248788
5.032855 6.8480349 2.7810357
5.0158572 6.913404 2.7950311
4.4713902 10.290553 2.7662852
4.5672755 10.252019 2.767123
4.6628709 10.212688 2.7679608
-0.69168365 11.041084 2.7275054
-0.55599409 11.045832 2.7267873
-0.48632187 11.006356 2.7162547
-0.42280179 11.114887 2.742347
-0.35412988 11.102715 2.7387564
-0.15050338 11.166574 2.7533586
-0.081784151 11.140102 2.7466559
-4.4296227 11.538809 2.7265346
-4.3539171 11.552979 2.7235186
-4.282609 11.578561 2.7233033
-4.8134594 11.67399 2.7855589
-4.7171698 11.642667 2.7711258
-4.2134824 11.610127 2.7245958
-4.1513343 11.661522 2.7306275
-4.0571733 11.622237 2.7155483
-3.9599063 11.688158 2.7223339
-3.859019 11.745045 2.7271807
-3.791965 11.784305 2.7308428
-3.7198801 11.808282 2.7310584
-3.6531096 11.849547 2.7353666
-3.5814612 11.87548 2.7362282
-3.5093558 11.900042 2.7368746
1.3151337 12.369222 2.7439833
0.55801505 13.942669 2.7123499
5.7632952 15.436702 2.7899153
-2.8808992 -12.379621 2.8038692
-4.3749671 -11.934784 2.8040848
-13.8376 -9.2171965 2.8151233
-13.858466 -9.1088305 2.8079448
-13.944704 -9.0434742 2.8141217
-13.967541 -8.9370165 2.807611
-4.2962494 -8.6478682 2.898854
19.77145 2.2796578 2.8538036
19.663738 2.389586 2.8403194
19.60466 2.7494764 2.8386161
19.781782 3.0222902 2.8694167
19.91048 3.1670928 2.8908494
1.6422175 5.3270526 2.8085418
1.7291009 5.373651 2.8440871
3.7090864 6.42554 2.8450022
3.6550813 6.5153599 2.8646946
3.7171571 6.5317621 2.8818805
5.1979313 6.9824572 2.8485243
5.2710028 6.9906516 2.8650079
5.0452838 7.0444989 2.8354621
-29.450132 7.4000936 2.8276258
2.9413323 7.4821301 2.8611732
3.0187237 7.4761815 2.8693876
-29.409956 7.5821486 2.8281822
2.8585672 7.5423574 2.8705611
-29.398497 7.7718778 2.8316126
3.2370758 8.1244678 2.8618977
3.3540726 8.1267586 2.8769817
3.4359455 8.1126585 2.8830464
1.4703741 8.6982784 2.8867784
1.5470855 8.6660948 2.8807137
1.4223177 8.7399693 2.8976636
1.4361963 11.468756 2.8497095
1.546845 11.493111 2.859165
1.3476628 11.628621 2.886215
-4.9114432 11.70727 2.800638
1.4288979 12.697647 2.818733
1.6743201 12.760207 2.8389823
1.5358008 12.933007 2.8730183
-0.39860788 14.494136 2.8184397
-0.13318677 14.657053 2.84916
0.046544015 14.612429 2.8403828
-0.31511679 14.751473 2.8680501
-0.22414926 14.723684 2.8623259
-0.043641303 14.790113 2.8749192
0.13810647 14.816038 2.8800712
-15.662556 -13.629807 2.9771476
-15.685836 -13.481829 2.9657927
-4.3326945 -12.654171 2.9505684
-5.2210307 -12.54735 2.9979601
-5.1140041 -12.505936 2.9805114
-4.4682865 -12.545788 2.9378586
-5.4420929 -12.428548 2.9930055
-5.5716529 -12.311008 2.9809422
-5.471385 -12.289653 2.9675863
-5.288106 -12.281426 2.9497068
-3.5676787 -11.555644 2.9817281
-3.3992031 -11.509164 2.9587474
-3.6113496 -11.447423 2.9594655
-3.4436505 -11.40165 2.9364851
-13.501679 -10.910419 2.9391603
-13.589179 -10.843973 2.9436677
-13.859191 -10.647868 2.9591932
-13.878704 -10.528069 2.9495106
-14.17651 -10.482409 2.9852359
-13.928837 -10.432073 2.9465058
-14.05899 -10.262685 2.9471736
-14.612414 -9.2237587 2.9258051
-3.7225909 -9.0430527 2.9358015
-3.9316945 -8.9222069 2.9270318
-3.8501925 -8.9598141 2.9276068
-3.7921619 -8.9762115 2.9253066
-15.005707 -8.84025 2.948843
-14.798826 -8.841136 2.9187934
-4.1608586 -8.847311 2.9350824
-4.0460529 -8.8846159 2.9307697
-15.052847 -8.7440481 2.9475074
-4.2485886 -8.7533817 2.9209938
-14.079435 -5.982348 2.9735675
-14.211721 -5.8337235 2.986161
-14.089609 -5.8848739 2.968034
-14.239966 -5.7434745 2.9846344
20.419954 1.7216655 2.9383986
20.042799 3.4408314 2.9159725
4.18609 8.0330582 2.9642196
1.3462522 8.7817745 2.9073048
3.949482 8.9625139 2.940258
4.0452142 8.9555092 2.9500341
4.1673608 8.9321003 2.9589474
-1.4504005 10.577255 2.9146936
-1.5722535 10.731509 2.9610465
-1.8607783 11.703577 2.9217629
-1.7602307 11.768758 2.9338517
1.249433 11.723993 2.9069214
-1.6636388 11.869026 2.9549174
1.150686 11.829268 2.9302611
7.9568162 12.998821 2.9625006
1.8819027 13.094405 2.9182558
1.63741 13.101633 2.9126549
7.2923102 13.149925 2.9228122
7.162045 13.297191 2.9357874
7.5801234 13.281963 2.9726136
7.6718049 13.253043 2.9766204
7.047121 13.377237 2.9390311
7.2863417 13.33138 2.953151
7.4898205 13.312825 2.9691789
6.9416957 13.476509 2.9466634
6.6564918 13.528895 2.9308264
6.7692137 13.547508 2.9438014
6.5296874 13.692849 2.9487624
6.6157217 13.656943 2.9497163
6.1395965 13.732473 2.9239571
5.9682779 13.801375 2.9228122
6.0730019 13.810323 2.9325435
0.32451087 15.026191 2.9214766
-5.3051543 -12.532164 3.002053
-2.8037992 -12.204096 3.0872951
-2.7377503 -12.260868 3.0973489
-2.9540381 -12.1716 3.0880132
-2.9972055 -12.027002 3.0559361
-3.1302829 -11.934845 3.042052
-3.0663748 -11.990513 3.0513878
-3.421428 -11.851631 3.0413339
-3.3352013 -11.824743 3.0291255
-3.2563951 -11.82252 3.0233803
-3.1911027 -11.86947 3.0303223
-4.5503631 -11.62534 3.0779591
-14.720567 -10.471153 3.0586901
11.116585 -8.2724733 3.0567689
2.3538837 -7.5622435 3.0370917
-14.507538 -6.589118 3.0972118
-14.54872 -5.7644687 3.041877
-14.841697 -5.5667124 3.0811839
-14.78898 -5.4436665 3.0632477
-14.873807 -5.3714924 3.0739331
-14.883353 -5.2719336 3.0691628
1.9563355 5.3527679 3.0712368
2.0507426 5.3546133 3.0899754
3.773489 6.4292469 3.0863805
4.715003 6.4963484 3.0780876
1.9945792 8.2759981 3.0296547
2.0426059 8.2526302 3.0256314
4.4071198 10.230453 3.0411103
4.5081325 10.290697 3.0671837
2.9793286 10.691466 3.0300488
3.0308473 10.623816 3.0160902
3.1021948 10.626319 3.0221477
3.1199372 11.8954 3.0319979
-29.022718 15.540655 3.0656333
-28.954811 15.733655 3.0686004
-28.955383 15.964867 3.0789847
-28.862074 16.378454 3.0902038
-28.733721 16.775076 3.0982702
-2.9060831 -12.302887 3.1167388
-4.12746 -12.290215 3.1964526
-3.9331503 -12.205941 3.1617424
-4.012826 -12.196335 3.1655724
-4.0322952 -8.9055376 3.1990306
-4.1312113 -8.8338614 3.1912556
-4.0705729 -8.8452301 3.1862793
-4.3416772 -8.7196074 3.1875234
-4.2637253 -8.7642784 3.1893895
-4.1800342 -8.7971869 3.1872125
-4.4626646 -8.6283092 3.1788151
-4.5338349 -8.4458303 3.1368291
-4.4823713 -8.4743309 3.13714
-4.7270522 -8.3097162 3.1284318
-4.645267 -8.3436956 3.1250105
-4.5728421 -8.3944836 3.1281209
-5.2208791 -8.2121296 3.1844132
-5.1582727 -8.2246857 3.176949
-5.0569878 -8.2304573 3.1610875
-4.9614134 -8.2441359 3.1486473
-4.8718023 -8.2664795 3.1399391
-4.7865005 -8.295373 3.1340299
-5.3124266 -8.1339149 3.1791263
-5.283525 -8.1991138 3.1918776
-5.4028416 -8.0546932 3.1738391
-5.5456553 -7.9475484 3.171351
-5.4136958 -7.9647965 3.1514463
-5.7361355 -7.855526 3.1830137
4.1433907 -7.699739 3.1118002
4.200491 -7.6923618 3.1191764
-14.600784 -6.4165158 3.1000738
2.3872583 5.2882676 3.1267409
2.364893 5.3700171 3.1620836
2.1365058 5.4285245 3.1438193
2.5649657 5.7165961 3.1567972
1.9832257 5.8540359 3.1140528
2.0513182 5.8763895 3.135875
6.1369624 6.4029899 3.1563933
3.7581089 6.540256 3.1229112
4.6427274 6.6509414 3.1103113
4.7212791 6.6326485 3.1219478
24.541458 10.666951 3.1908689
23.880287 11.262675 3.1483617
-5.235641 13.392237 3.1720171
0.37915722 14.491512 3.1978672
-28.751919 17.262239 3.1228404
-28.726421 17.974451 3.1554773
-14.367624 -12.511753 3.2257977
-14.446367 -12.425288 3.2262986
-4.9483352 -12.417068 3.2955563
-4.6754074 -12.39068 3.2651548
-4.4775734 -12.322103 3.2323596
-4.3943844 -12.32831 3.2268541
-4.2263994 -12.333546 3.2144063
-4.7217383 -12.284724 3.2448075
-4.5338764 -12.242498 3.218715
-4.2914248 -12.277135 3.2065065
-5.0336537 -12.193866 3.2524676
-4.9393954 -12.176837 3.2397807
-4.0008869 -9.1328096 3.2627873
-3.9222126 -9.1048155 3.2441268
-4.0069652 -8.9960938 3.2226672
-4.4234009 -8.7487812 3.20805
3.544198 -7.6533489 3.2341938
-1.7090374 10.682189 3.2476251
-0.77941084 10.695817 3.2194474
-0.71478778 10.715689 3.2240479
-0.64989233 10.734213 3.2283609
-0.55159867 10.749731 3.23138
-0.45340872 10.773065 3.2369866
-0.35557854 10.818851 3.2496381
-0.25634894 10.83512 3.2536633
-0.18987784 10.837447 3.2539508
-0.12492501 10.974402 3.2947798
0.34686539 10.984005 3.2990928
-3.7687235 11.476982 3.297894
-3.6247025 11.513165 3.2952604
1.0318469 11.736555 3.2165134
1.1430612 11.758659 3.2253361
1.3243196 11.749877 3.2281015
1.439327 11.793629 3.2436402
1.2767177 11.988007 3.2913098
0.70224392 12.987551 3.2067461
2.0629587 12.920541 3.2258964
0.62393481 13.020709 3.2139275
0.79184371 13.147756 3.2474408
0.35112578 13.294071 3.2787995
0.55338973 13.248381 3.2692244
0.22921051 13.323014 3.2852628
0.47464678 13.32333 3.2869387
-0.1555015 14.590365 3.2187626
0.02354225 14.582387 3.2168238
0.11315387 14.599545 3.2207015
-8.0215597 14.684746 3.2525303
-0.06637115 14.678931 3.2381501
0.29361412 14.662471 3.2351344
-8.1800365 14.758885 3.2800069
0.20449564 14.725511 3.2487056
-8.0429745 14.941133 3.2983243
-28.751532 19.242023 3.2215853
-1.0501299 35.066505 3.2668316
-0.61883378 35.025982 3.2621031
-2.8957276 -12.097029 3.3958669
-3.2517633 -11.952244 3.381645
-3.1457932 -11.997465 3.3861222
-3.0092556 -11.923084 3.3571517
-2.9452536 -11.978796 3.3676865
-3.9089472 -11.761866 3.3837519
-3.813113 -11.713161 3.3629458
-3.3420837 -11.714771 3.3258109
-4.4168983 -11.600304 3.388756
-4.3395576 -11.610922 3.3840153
-4.2685647 -11.638235 3.3842788
-4.1483207 -11.640617 3.373744
-4.0400553 -11.675632 3.3729539
-3.9556348 -11.662745 3.3621559
-3.3990324 -11.643111 3.3113258
-4.4890394 -11.575682 3.3895462
-14.256682 -10.103752 3.3965912
-15.036275 -8.8229427 3.388768
-14.873034 -8.8502827 3.3641536
-15.069736 -8.7187176 3.3841884
-15.16132 -8.647974 3.3927748
-15.2372 -8.5677729 3.3979268
6.5242743 -7.8797526 3.3476927
19.927816 2.4287362 3.3990824
19.916451 2.5514665 3.39975
1.3738408 6.0991597 3.3691571
3.289161 8.0354033 3.329433
3.3405573 8.0202417 3.3315814
3.4013631 8.0271044 3.3430388
4.8584027 9.931901 3.3192196
4.750927 10.021929 3.3295705
4.8272915 10.023655 3.3399215
-0.057695545 10.996034 3.3011053
0.4148331 10.996984 3.3036931
0.043710649 11.044892 3.3157692
0.1451312 11.026836 3.3105938
0.21260306 11.016162 3.3077185
0.48259535 11.000929 3.3057058
0.55032593 11.002543 3.3071434
-4.9174142 11.335136 3.3732173
-4.85042 11.371307 3.3750608
-4.6888247 11.37735 3.3595221
-4.8077879 11.465799 3.3942866
-3.9248896 11.475509 3.3110623
-3.8461256 11.474679 3.3039515
-4.0149312 11.507683 3.3273911
-3.7076819 11.529279 3.3063219
-0.35014221 13.595249 3.3530078
3.2371593 14.726892 3.3262558
-7.9966831 15.076054 3.3172145
-0.99156982 15.029203 3.3225937
-7.9408541 15.195306 3.33267
-7.8676863 15.283019 3.3412564
-7.8061709 15.394918 3.3551855
-28.584261 21.781778 3.3464766
-28.539932 22.026108 3.3570466
-28.239214 22.635511 3.3701198
8.0602951 34.773636 3.3239462
8.2799721 34.750645 3.3265421
7.8452444 34.815636 3.323297
6.7620621 34.98027 3.3176413
6.9792991 34.951794 3.3189394
7.1976471 34.927814 3.3207936
6.1055899 35.033092 3.3114293
-3.3511946 -12.025925 3.4082451
-3.7877557 -11.882479 3.4048214
-14.05478 -10.488159 3.4088027
27.472237 -9.1088514 3.4512391
20.067852 2.1962366 3.4181137
19.98152 2.3109469 3.40576
19.944153 2.9290924 3.4131055
4.7586994 5.4818616 3.4469228
2.5500774 5.5092564 3.4557302
2.6341677 5.5124416 3.4777443
4.5680857 5.530828 3.4061739
4.7161989 5.535049 3.4529278
4.5539351 5.6182289 3.4340549
3.2784636 5.9795723 3.4357617
3.339911 5.9608655 3.4425108
3.2553744 6.0693398 3.4699574
3.88585 6.7371917 3.4367764
6.3794351 9.6568022 3.4744844
-2.138649 11.160913 3.411516
-4.634439 11.649159 3.4227304
-4.5443587 11.736271 3.4358988
6.2073498 12.757136 3.497833
6.1323123 12.80199 3.4997482
2.0263374 13.774832 3.4327216
2.1233318 13.843714 3.453069
-4.4118743 -8.2151957 3.5757661
-4.5371981 -8.0299072 3.5367393
8.5723572 -8.0267363 3.5255208
-14.705991 -6.4903312 3.5459812
-14.890635 -6.1397572 3.5530901
-15.047767 -5.7766733 3.555675
-15.101204 -5.6911206 3.5599835
-30.075504 -1.6296537 3.5915477
-29.87912 1.3167965 3.5663278
-29.856747 1.6831366 3.5658541
-29.85874 1.867108 3.5673935
2.7347922 5.5902753 3.5425501
2.7829626 5.6014085 3.5603592
3.6568794 6.0391474 3.5570211
3.7172194 6.0132613 3.5617456
3.8899567 6.3556886 3.538286
3.7874012 6.451921 3.5524409
3.8574729 6.4349947 3.562521
7.3633566 6.547843 3.5067685
7.4572177 6.7970047 3.5909255
7.0389652 7.0352812 3.541806
3.866312 7.1004376 3.5725822
6.9822211 7.1081839 3.5459971
7.1573496 8.1656151 3.5532691
7.2161498 8.1314964 3.5576231
6.985599 8.2720127 3.5430057
7.0411649 8.2347727 3.5454938
7.1021352 8.2036295 3.550781
-1.1602662 9.9296589 3.5578997
-1.2649698 10.024699 3.5959549
-0.24560988 10.791931 3.5324316
-0.14676796 10.834548 3.545805
-0.047362033 10.895366 3.5653985
0.15404929 10.955212 3.5853028
0.25543213 10.977032 3.5930781
0.35653669 10.977118 3.5940111
0.4568162 10.955753 3.5882573
0.55751413 10.948763 3.5874801
0.62435907 10.939443 3.585614
1.0637201 10.943635 3.5980544
6.3216429 12.791925 3.517941
-5.587337 13.44317 3.5892766
8.6916113 13.493043 3.5405958
-17.086246 -19.017252 3.6658304
-17.43903 -18.937214 3.6913793
-3.635093 -11.687102 3.6743164
-3.7409847 -11.526829 3.6380877
-3.511728 -11.539674 3.6211236
-4.4119306 -11.407287 3.6717286
-4.355454 -11.469959 3.6832297
-4.5359006 -11.313171 3.6590774
-4.4744711 -11.361287 3.6656904
-15.527477 -10.720566 3.6677306
-14.10735 -8.9015055 3.6797552
-13.876601 -8.9958677 3.6480889
-14.211447 -8.8457384 3.6926804
-4.1008701 -8.6266966 3.6627703
-3.9620523 -8.6753702 3.6572206
-3.8362384 -8.6087494 3.6140766
-3.7923393 -8.6526508 3.6226695
-4.2360673 -8.5037851 3.6430779
-4.1674414 -8.5625048 3.6516709
-4.0154142 -8.5823469 3.6334107
-4.279737 -8.460969 3.6359172
-4.3958836 -8.3073092 3.6040514
4.4414024 -7.7290049 3.6905742
-14.93539 -7.6026769 3.6969886
7.6915026 5.6810322 3.6667087
7.7292337 5.6359315 3.6681409
1.6509764 5.7872353 3.6519046
1.7103533 5.7927299 3.6651332
5.8756895 5.7853107 3.6437185
5.9567952 5.7229104 3.6501856
7.6515074 5.7611389 3.6727953
1.583621 5.8210912 3.6607237
5.8257136 5.8426838 3.6459417
5.7714095 5.9321165 3.6572587
5.6798553 6.0944967 3.6813078
5.7262154 6.032001 3.6752448
5.4363136 6.1280475 3.6198719
5.5289803 6.1180735 3.6439207
5.6262465 6.1117363 3.670799
5.1825991 6.3735633 3.6299763
2.6817842 9.797493 3.6150663
2.7354925 9.7581749 3.606684
2.4977424 9.8324118 3.6103721
2.5606391 9.82693 3.6140604
2.6199152 9.8073921 3.6127193
-1.342411 10.13723 3.6392069
0.96578997 10.985203 3.6086285
0.90448451 11.065754 3.6331983
22.769842 11.062888 3.62992
22.704197 11.203707 3.6303458
1.6398013 11.993706 3.6340625
1.70916 11.954026 3.625149
1.0604478 12.187578 3.6725912
1.4344739 12.155022 3.6743164
1.5478346 12.152635 3.6777666
1.2542934 12.238903 3.6934369
1.3666756 12.224512 3.692718
3.0299811 13.009961 3.6468565
3.1565232 13.010054 3.6548893
-17.079933 -19.728918 3.7417672
-5.4874878 -12.526269 3.7335048
-5.2222509 -12.544109 3.7095382
-2.7771816 -12.316122 3.79019
-2.8407972 -12.247535 3.7743759
-3.3356781 -12.156811 3.7844396
-3.2146611 -12.152779 3.7738008
-2.9420142 -12.173801 3.7598557
-4.0421748 -11.715866 3.7206082
-3.9680636 -11.734097 3.7185955
-3.8854463 -11.726402 3.7085321
-4.2433228 -11.601699 3.7085321
-4.1405249 -11.651936 3.71227
-4.3217888 -11.595188 3.7148576
-14.378633 -8.8278589 3.721977
-15.026035 -8.358984 3.7930648
-14.940192 -8.0727615 3.7461038
-14.884286 -7.9249482 3.7198229
-14.928365 -7.7147989 3.706898
7.7537718 5.9506865 3.7479842
1.5433407 6.0372291 3.7813385
8.2592936 6.5652533 3.7548809
5.3255115 6.6320405 3.7585068
8.1737242 6.6625419 3.7528691
5.3370023 6.7305288 3.7956917
2.7870188 7.290247 3.7059996
2.8316984 7.2730088 3.7059996
2.7318277 7.3481836 3.7225137
2.6812136 7.4201717 3.7463195
2.7889051 8.0644026 3.7706323
2.751997 8.1186123 3.7880123
2.4518316 8.2161579 3.7888207
3.1809092 9.3731756 3.7956038
9.3240547 10.125082 3.7577345
-1.8270212 10.356927 3.7428105
-1.7601205 10.348438 3.7357695
-2.136301 10.419697 3.785392
-2.0363243 10.418629 3.7780159
-1.9336396 10.400753 3.7649395
-1.1331122 10.538061 3.7719805
-1.0357242 10.544241 3.7706394
8.4873962 10.699676 3.7285006
8.5263062 10.614304 3.7169125
8.4394312 10.774335 3.7364018
8.3613577 10.810654 3.7311344
-3.318012 11.00888 3.7625775
-2.6773641 11.05977 3.7237015
-2.5299797 11.041767 3.706907
0.85196579 11.274853 3.7000649
0.78836119 11.360458 3.7265007
0.72715658 11.499771 3.7706637
-5.1423922 11.533186 3.7909088
-5.0389261 11.586663 3.7930653
-4.9402471 11.553077 3.7720757
-4.8492231 11.535494 3.7565491
-4.7754254 11.557949 3.7542491
-4.6548767 11.566706 3.7430353
-4.5300784 11.562739 3.7280841
-4.1045799 11.730684 3.7309592
1.1439192 12.274299 3.7007689
-29.17993 12.758823 3.7975707
7.6513085 12.9806 3.7149515
7.7651844 12.990912 3.7314689
7.5739565 13.031501 3.7161484
7.8794737 13.000314 3.7479861
7.9972196 13.013763 3.7659397
4.6600447 14.461748 3.7460711
4.5852427 14.534514 3.7575614
4.7829823 14.537101 3.7731211
4.940371 14.562748 3.7914338
-3.1584377 -11.470234 3.8932009
-3.6874995 -11.3273 3.8981771
-3.5363288 -11.333593 3.8851149
-3.3185923 -11.367571 3.8751626
-3.2498229 -11.391376 3.8764067
-3.447017 -11.290541 3.8630333
-3.368701 -11.281426 3.8527701
-13.849508 -10.502113 3.8342094
-13.899616 -10.406403 3.8303318
-14.317007 -10.313173 3.8923719
-14.219537 -10.376076 3.8831091
-14.372855 -10.220038 3.8904333
-14.440089 -10.135022 3.8917258
-14.990125 -8.5815601 3.810298
-15.039096 -8.4875011 3.8094363
-1.6230637 -7.0048079 3.8748629
-1.5627878 -7.0387573 3.8855367
-1.733412 -6.991437 3.8817415
-1.6609145 -6.9733081 3.863003
2.5277267 5.4684868 3.8498394
1.8796415 6.089891 3.8674548
1.9487596 6.0491843 3.8565605
3.1213069 6.0935845 3.8972504
3.2632697 6.0029321 3.8893352
1.4879534 6.1330423 3.8295844
1.845946 6.1135859 3.8752365
3.0779867 6.1009831 3.8898299
7.4331069 6.7936811 3.8614836
7.5478067 6.7719684 3.8885157
3.5262129 6.8751898 3.8929033
5.2470536 6.8296933 3.8057964
7.2681808 6.8927269 3.8410752
7.3312736 6.8255124 3.8410752
7.1622925 6.961226 3.8299758
7.2082391 6.9203811 3.8317661
7.0421028 7.0576835 3.823173
7.1347523 7.0201039 3.8382108
6.9801512 7.1255627 3.8249633
2.0759306 7.7773333 3.8222411
2.1529248 7.871623 3.8750002
2.4501159 7.8154912 3.8891549
2.0575314 7.9026952 3.8775737
3.3491538 8.0487947 3.8522775
7.1856756 8.0720253 3.8460791
7.2237163 8.0151863 3.8400438
7.0687819 8.1396799 3.8366909
7.1260581 8.1046438 3.8407145
2.512876 8.2359533 3.8049879
3.0858893 9.47365 3.8206668
3.1309969 9.4155531 3.804913
2.7998567 9.584465 3.8289018
4.8293471 9.6616144 3.8440673
4.9000511 9.6544828 3.8531201
2.553926 9.7334843 3.8587983
4.764926 9.7564383 3.8641846
4.6638174 9.8541832 3.8799431
4.3707018 9.9352331 3.8628435
4.5836601 9.9198074 3.8889959
-0.5560376 10.705909 3.8152325
-0.42640895 10.757112 3.8313265
0.56653893 10.797813 3.8480909
0.6656906 10.788799 3.8469172
0.7654621 10.789315 3.849432
-0.49464607 10.803231 3.8487613
-0.36295119 10.835794 3.8584847
-0.26388627 10.867352 3.868711
-0.16414826 10.88774 3.8752491
0.036318626 10.898337 3.8786018
0.1361533 10.862636 3.8661962
0.23566593 10.838367 3.8581493
0.33496058 10.821093 3.8529525
0.43436864 10.813366 3.8514435
0.50031769 10.802028 3.8484261
0.83461958 10.822927 3.8631787
0.93757319 10.853214 3.8769255
1.0418569 10.891074 3.8936899
-0.0641049 10.916059 3.8849723
-3.9609201 11.132778 3.8667653
-3.8937883 11.160461 3.8680093
-3.7242203 11.110983 3.8347316
2.697546 12.686533 3.8936999
0.32379043 12.728508 3.8223929
6.6376123 14.304823 3.8880239
-15.673751 -12.779783 3.9310472
-3.269701 -12.674932 3.9296408
-3.1734173 -12.621375 3.9069262
-3.132021 -11.797408 3.9942787
-3.6280298 -11.381406 3.9090624
-14.350354 -10.60708 3.9365325
-14.734272 -10.0739 3.9373941
-1.5048265 -7.0851626 3.9033265
20.106853 2.5401976 3.9394426
20.065588 2.6601689 3.9344816
20.047915 2.7831042 3.9342909
20.021717 2.9047949 3.9325736
19.969547 3.0224497 3.9258952
7.3371048 5.2852411 3.9957628
7.2971482 5.32477 3.9917209
2.3933358 5.6729827 3.9346495
7.6458497 5.634409 3.932137
7.0034504 5.7286863 3.998188
7.5809298 5.7314224 3.9346232
7.5776563 5.8393345 3.9606347
3.6626065 5.9728022 3.9882751
3.7289197 5.9167376 3.981102
3.1614442 6.0797153 3.9007132
3.2292585 6.0729837 3.915307
3.3608551 6.0489235 3.9390526
3.4609654 6.0528488 3.9689817
5.4933672 6.1734796 3.9238987
8.0168247 6.3504391 3.9218135
8.0028162 6.459981 3.9438334
3.8380282 6.752378 3.9131508
3.8693328 7.2916374 3.9196093
3.7737806 8.0732317 3.9379644
4.0229397 8.7833185 3.9996521
2.9371767 9.17383 3.9879851
-1.8036741 10.143392 3.9506361
-1.744558 10.172673 3.9577968
-1.3756354 10.279967 3.9771311
-0.95994723 10.275925 3.9576178
-0.86322337 10.25972 3.9481297
-0.76574975 10.226677 3.9325547
8.4122677 10.231815 3.9765079
8.3076439 10.361177 3.9868588
5.7605686 10.731045 3.9855704
-4.1476583 11.219724 3.9143496
-4.0651264 11.207438 3.9012873
1.636735 11.891533 3.9280341
1.5711678 11.957891 3.9466944
5.1823978 13.61077 3.9760666
4.2371812 15.383317 3.933985
-28.857187 16.624001 3.9711509
-4.6399946 -11.341128 4.009829
-18.603586 -8.8661079 4.0058441
6.3813691 5.6769199 4.055582
6.444191 5.6274419 4.0624447
7.1457925 5.6288028 4.0196099
7.2329011 5.6258464 4.0491152
7.0188866 5.81356 4.0272894
2.8547869 5.9609861 4.0106363
2.9070168 5.9756455 4.0324249
3.0288258 5.9905801 4.0734081
3.2125645 5.9408164 4.098309
7.6480279 5.9687138 4.0164828
2.9780893 6.0274439 4.0796332
3.5659535 6.0627861 4.0038586
3.619144 6.0256491 4.0011373
1.6911148 6.1015811 4.046114
1.7635667 6.1428342 4.0840769
1.8256956 6.1453481 4.0967312
4.7780457 6.4230986 4.0332856
8.0380249 6.6529565 4.0011201
8.0056391 6.7093487 4.0054164
5.161592 6.8264732 4.0637317
5.028687 6.9115591 4.0585842
7.2154064 7.5488424 4.0043426
4.1951232 8.0538225 4.0127387
4.2440343 8.0271215 4.0123343
2.8776395 9.2812757 4.0229859
3.0532067 9.242527 4.0298715
3.1381989 9.3076687 4.0665936
4.2653513 9.7318802 4.0745187
9.3502083 9.7433519 4.053997
9.286788 9.8572693 4.0656414
9.0928288 10.014484 4.0607533
9.1949406 10.002926 4.0788679
-1.2026268 10.446394 4.0322695
-1.1394162 10.46193 4.0354919
-1.0756785 10.473369 4.037282
5.855402 10.748911 4.005475
-2.8294995 10.882323 4.0016522
-2.7853584 10.988976 4.0345106
-2.7230737 11.026897 4.042222
-2.6544819 11.039734 4.0408807
-2.553719 11.067773 4.0423899
-2.4597743 11.1272 4.0556335
-2.3965931 11.166033 4.0643511
-4.4688778 11.647141 4.082294
-4.3802428 11.628983 4.0664325
7.8145208 12.45998 4.0153084
7.9358549 12.482623 4.0382214
8.0483541 12.489648 4.0563936
4.9977617 12.689993 4.0943942
4.5731535 12.745375 4.0650663
4.6736431 12.778239 4.0846181
4.7509575 12.74663 4.0837555
4.8236399 12.702912 4.0791554
4.4273372 12.832223 4.07513
4.5053549 12.803009 4.0745549
4.3699937 12.922658 4.0952568
-28.685251 17.962627 4.0357995
-2.7708108 -12.23654 4.1056199
-14.345562 -12.031223 4.1301923
-14.412345 -11.937368 4.1282539
-14.560788 -11.762062 4.1291156
-14.60584 -11.505148 4.101542
-3.3096845 -11.27235 4.1810308
-14.776097 -7.804565 4.1199841
-14.826694 -7.6000643 4.1077757
-14.789255 -7.6958261 4.1104088
7.0797482 5.2164226 4.1756835
6.9717727 5.3376169 4.1692495
7.031055 5.3148932 4.1851201
7.4420576 5.6433291 4.1271224
7.5871077 5.680336 4.1881542
7.601223 5.6184521 4.1768374
7.5262604 5.7802567 4.193409
3.1705475 5.994276 4.1149101
3.1113095 6.0156488 4.1097221
3.3048875 6.0229235 4.1688619
1.8694915 6.1541862 4.1101928
1.9330297 6.1587853 4.125001
2.0131004 6.2133231 4.1737332
4.4384346 6.2932668 4.150012
4.3947072 6.3131571 4.1452684
7.6915755 6.3918366 4.1404204
7.7735028 6.3796906 4.1633716
7.8017349 6.3231473 4.1576338
5.0751524 6.4839358 4.1484709
5.229692 6.4337721 4.1772671
4.899591 6.5027885 4.1021266
4.9729896 6.5166197 4.130023
5.0314493 6.5100083 4.1453214
3.542048 8.055995 4.1786861
3.8525846 8.6535549 4.1857295
2.9936213 9.0129423 4.1966424
3.2601395 9.3830671 4.1124964
3.3494546 9.3614197 4.1163216
2.5873215 9.5780306 4.1075234
2.4684398 9.6045856 4.1056108
2.5334482 9.6124878 4.1155562
4.6429229 9.6901493 4.120348
-2.1290162 9.7602024 4.1358299
9.1904373 10.247632 4.1323481
7.3002238 10.326232 4.1382756
-2.154721 10.601151 4.1482754
0.75293195 10.822565 4.1600904
0.82249701 10.859638 4.1762028
1.260216 10.864531 4.1941047
8.2345486 11.153807 4.162107
21.651548 11.194047 4.1269445
8.0723181 11.292462 4.1671386
8.1380854 11.238065 4.1654134
-4.5686231 11.69209 4.1077967
2.8669672 12.31002 4.1360984
3.0450447 12.384662 4.1734195
2.8111105 12.414513 4.1653333
2.9822717 12.45857 4.19208
4.9398422 12.772231 4.1110706
8.3764639 12.825296 4.1820202
4.3017659 12.982868 4.1058955
4.1351705 13.29489 4.17979
4.2152185 13.264703 4.1783524
4.052959 13.31818 4.179215
-5.0510869 -12.028687 4.2692099
-3.1045084 -11.621418 4.2809467
-3.039794 -11.665775 4.2903347
-3.1673009 -11.571256 4.2695465
-3.2102683 -11.451818 4.2326651
-3.9299788 -11.301039 4.2581468
-3.87485 -11.366851 4.2739053
-3.2622848 -11.368514 4.2091951
-4.0303736 -11.255058 4.2546263
-4.2562737 -11.126773 4.239706
-4.1575804 -11.176028 4.2437296
-13.206327 -11.001389 4.2377591
-4.4008327 -11.094722 4.2477531
-4.3172841 -11.082012 4.2326651
-13.268333 -10.915832 4.2360835
-13.424765 -10.771022 4.2435045
-13.462444 -10.666138 4.2346473
-13.616908 -10.519123 4.2423077
-13.53299 -10.587521 4.2363229
-13.708216 -10.455983 4.2506857
-13.751948 -10.356488 4.244462
0.81156152 -9.605566 4.2596951
-14.499287 -9.0817261 4.2181301
-14.586427 -8.8889666 4.2114277
-14.986952 -8.2722816 4.2205238
-15.022076 -8.1718168 4.2162151
-29.972799 -0.86617476 4.299583
-29.938612 -0.49758986 4.2934799
-29.927244 -0.31373534 4.2914925
-29.921677 -0.1300692 4.2904992
-29.915974 0.05351859 4.2896476
-29.913101 0.23706286 4.2893634
-29.910093 0.42058781 4.2892218
-29.884869 0.78712988 4.2866669
-29.831415 1.1521994 4.2807055
-29.814884 1.3348213 4.279428
-29.796247 1.5172335 4.2780085
-29.777483 1.6995237 4.276731
-29.767481 1.8822653 4.2768731
-29.762871 2.2489827 4.2798538
-29.754429 2.4320457 4.2807055
-29.727114 2.6135294 4.2790022
7.3565302 5.0133476 4.2271557
7.1927099 5.2318659 4.2232957
7.2422872 5.2002788 4.2335901
3.3767128 6.0652761 4.2124391
3.4653747 6.0488105 4.2302508
2.0662708 6.2464547 4.2044263
2.1561015 6.3220253 4.2685051
5.1947265 6.5534525 4.2132626
5.2421074 6.5305085 4.2191119
4.919672 7.4606047 4.2434554
5.0214791 7.4644799 4.2717652
4.7718673 7.5859442 4.2554655
4.8758769 7.5442643 4.2653313
4.7280889 7.6196861 4.258039
3.8177588 8.7189245 4.2059383
3.8115757 8.8522406 4.2588868
2.8927884 9.0803747 4.2111931
2.9436393 9.0476675 4.2043219
2.8389239 9.1040659 4.2140222
4.0865502 9.3742228 4.2337556
4.9025607 9.9949503 4.2689352
-2.330991 10.788383 4.2324152
0.89460337 10.92139 4.2019815
0.96430284 10.946388 4.2137971
1.0656154 10.943504 4.2163033
1.1641411 10.912857 4.2084265
1.3667878 10.90533 4.2145128
-4.1382194 11.24754 4.2651882
-3.9854195 11.256623 4.2497649
-3.8995905 11.232805 4.2316594
-4.1001558 11.358677 4.2977109
9.2449474 12.7424 4.2979021
8.5481815 12.914434 4.2281098
8.8177309 12.972919 4.2823634
8.7315159 13.017165 4.2792029
4.0110531 13.476823 4.2211938
5.0517254 14.599327 4.2175751
4.9806418 14.684864 4.233377
-28.54553 21.492298 4.260767
-3.8288345 -11.70007 4.3811975
-3.8617473 -11.560192 4.3376102
-14.781912 -9.5132885 4.3339906
6.8159971 5.3709483 4.3720922
-29.63813 5.5730648 4.3242803
2.6346695 5.5749454 4.3999014
9.0673132 5.5107775 4.3928847
-29.568331 6.125493 4.3298159
2.9748847 6.1850653 4.3858929
5.0452623 6.2167797 4.3146276
5.1045513 6.2115502 4.3326545
-29.522837 6.4948993 4.3344998
5.8290434 6.4923711 4.3959394
-29.498842 6.6796422 4.3369126
5.4643054 6.6387596 4.3320475
5.5592546 6.670279 4.3747921
-29.492008 6.8686008 4.3420224
-29.479151 7.0565748 4.3464227
-29.442987 7.2392135 4.347558
-29.41625 7.4243388 4.350255
-29.382244 7.8005099 4.359055
-29.351976 7.9855866 4.361752
-29.32221 8.3652754 4.3722553
-29.313089 8.557518 4.3786426
4.4926634 9.4992065 4.3504248
4.4319534 9.5215683 4.3481297
-1.6017135 9.6754942 4.3336606
-1.5430349 9.6896572 4.3356814
-1.4828597 9.6944218 4.3336606
-2.0444484 9.7347546 4.3955007
-1.9218252 9.7438545 4.3886299
-1.8310733 9.7561493 4.3864069
-1.7352479 9.7388563 4.3712497
-1.668952 9.7114592 4.3542743
8.9580469 9.9704418 4.3861489
5.0960689 10.074843 4.3294444
5.062048 10.161919 4.3534331
1.9971098 10.372976 4.3733764
2.0630627 10.372308 4.3783488
2.1275961 10.363978 4.3802614
8.1797714 10.311867 4.3071532
-1.0376903 10.534669 4.3825569
-0.71473867 10.571683 4.3867645
-0.64923525 10.565725 4.3825569
-0.58444399 10.570433 4.3829393
-0.26014984 10.592623 4.3867645
-0.32584885 10.613914 4.3963275
1.896269 11.99968 4.3235278
1.7472441 12.010859 4.3195047
1.8220392 12.007363 4.3221869
9.1381207 12.84223 4.3030376
8.9464111 12.990074 4.3060665
9.0160122 12.920695 4.3013263
1.4431757 13.166909 4.3345218
9.7312984 14.601988 4.3263302
5.3660483 14.912939 4.3268728
-2.7938473 -12.250456 4.471725
-2.9243233 -12.133735 4.4418845
-2.8541193 -12.169794 4.4485903
-3.0602448 -12.046714 4.4234433
-2.9930606 -12.0927 4.4335022
-3.7822735 -11.802295 4.4107027
-3.9053385 -11.059958 4.4977245
-3.8251834 -11.048419 4.4834027
6.7923188 4.83955 4.4944234
2.6772828 5.5762863 4.4138412
2.744169 5.5831265 4.4391079
2.5738807 5.6699057 4.4431744
2.6110547 5.6138873 4.4179072
2.525739 5.7026768 4.4504347
2.9834449 5.7861247 4.4258566
3.0162072 5.7625809 4.4219213
2.8910518 5.8697348 4.4483457
2.9345398 5.8221617 4.4326034
3.3187346 6.0681162 4.419817
2.9812284 6.2968788 4.4521255
2.562748 6.4585071 4.440279
2.6428342 6.4288845 4.4418945
5.8819857 6.4710212 4.405838
5.8003554 6.5407104 4.4044881
7.5232906 6.5491958 4.4076262
2.3278177 6.6255331 4.4876652
3.0008848 8.9892244 4.4999585
8.7150812 8.9818888 4.4539547
4.6279197 9.019352 4.4795709
-29.344322 9.1560698 4.4077396
-29.324371 9.3476753 4.4132752
-29.311642 9.5421381 4.4200883
-29.257238 9.7233725 4.4207983
-2.146009 9.7704239 4.4203582
-1.9868686 9.7578707 4.400351
9.1692171 9.8351469 4.4001446
-29.255146 9.9224215 4.4295983
-1.3345746 9.9467125 4.4347067
9.0491133 9.9483328 4.4007664
-29.230125 10.315598 4.4446435
-29.216576 10.715786 4.462244
-0.79230404 10.739408 4.4582963
-0.19848515 10.775083 4.4617391
1.3294966 10.780241 4.4969311
-0.066731788 10.856165 4.4946356
0.16657326 10.866129 4.4992256
-29.220713 11.125995 4.4833927
4.2796783 12.877381 4.4405756
4.366549 12.87428 4.4486618
4.4336519 12.813115 4.4368434
4.2223544 12.970274 4.4635901
4.1634736 13.061134 4.4859829
-3.7842462 -12.326957 4.5890756
-3.6375484 -12.113539 4.5012302
-3.7873254 -11.1601 4.519207
-4.1592646 -11.019341 4.5165215
-4.0616755 -11.068176 4.520997
-3.9930534 -11.091133 4.5202808
-15.49263 -10.241714 4.578877
16.066183 -9.0758181 4.5494332
16.08679 -8.9576998 4.5396185
-30.657125 -8.8309755 4.5746589
16.121023 -8.8476133 4.5338736
16.147678 -8.7337494 4.5262132
-30.666903 -8.6303654 4.5681295
3.4618917 -7.6958723 4.5475554
-0.45058602 -7.4917336 4.5543108
7.0783415 4.6603303 4.5670061
7.1533113 4.6470232 4.5968928
6.8715706 4.832725 4.5271568
6.9705172 4.8386617 4.5726986
6.7724018 4.9518557 4.5212269
6.8176932 4.9848881 4.5513511
6.6750164 5.071722 4.5176687
6.7130518 5.0359521 4.5224128
6.6409807 5.1104364 4.5157714
2.8383591 5.6431422 4.5073576
2.9125452 5.7031898 4.5695081
2.8398438 6.0439572 4.539989
2.9202938 6.0220466 4.5501089
6.5012321 6.4034667 4.5975137
2.5457449 6.5918851 4.515666
2.3817842 6.6484089 4.5129733
2.4390092 6.6787858 4.5436668
2.5180957 6.6412611 4.5388203
2.499929 6.7173958 4.5802832
7.6193366 6.8833914 4.5373693
7.7485218 6.829288 4.5640454
6.6198993 6.9096522 4.5437102
7.7371831 6.904108 4.5822339
7.5687542 7.0950365 4.5842547
7.5317121 7.1476402 4.5882964
4.7949924 7.6513801 4.5493698
4.8865232 7.6404161 4.5693922
4.9613733 7.6022091 4.5736666
4.6062293 7.7675185 4.5498195
3.0679281 9.0057001 4.5175447
2.5710526 9.1787043 4.5261235
-1.4932075 9.4691849 4.5518599
-2.283597 9.958477 4.5147352
-0.53431147 10.87374 4.5072589
-0.13383068 10.895277 4.5110841
-0.00011854088 10.873001 4.5015211
0.26676363 10.871576 4.5022864
0.33369198 10.877123 4.5053463
0.40059647 10.879487 4.5072589
0.73550481 10.88236 4.5156746
1.0720516 10.885941 4.5286803
-0.40324897 10.945034 4.5344181
0.066806331 10.906982 4.5156746
0.46849442 10.903594 4.518352
0.53683925 10.930045 4.5305929
0.63643086 10.907525 4.5235162
0.87583864 10.958168 4.551249
0.94258463 10.947065 4.548954
1.0069348 10.910714 4.5363307
4.7388277 10.99518 4.5911732
0.81130248 11.000194 4.5665498
1.5335497 11.655835 4.5081077
1.6450888 11.671679 4.5199232
1.768658 11.764132 4.5618138
1.9970491 11.801392 4.5897412
-4.8895121 11.916492 4.5840459
23.55233 12.545414 4.5182538
4.0974083 13.131799 4.501533
-2.9189215 -11.862769 4.6846223
-3.5796063 -11.717507 4.6982279
-3.4206214 -11.709466 4.6778193
-3.3497343 -11.733826 4.6792517
-3.1534824 -11.724705 4.6557999
-3.0528002 -11.781767 4.667078
-2.9713051 -11.764066 4.6527567
-3.4956126 -11.698993 4.682116
-3.2571084 -11.680408 4.6498923
-4.4710264 -11.316862 4.6660042
-4.3400335 -11.185656 4.6008406
-13.137194 -10.742143 4.6329064
-13.224625 -10.678908 4.6405439
-13.350128 -10.512237 4.6389637
-13.230314 -10.550048 4.6197381
-13.583721 -10.428689 4.6753087
-13.486728 -10.486379 4.6639838
-13.707419 -10.3906 4.6958513
-14.152035 -9.8001328 4.6995382
-14.060048 -9.8646212 4.6890039
-16.37941 -9.3049183 4.6444674
-16.459068 -9.2170496 4.6509309
-14.69214 -8.770442 4.6713581
-14.700785 -8.6537008 4.6571364
-14.731913 -8.550745 4.6502886
-14.717956 -8.4223385 4.6294827
-14.758656 -8.2068672 4.6102567
-14.883719 -8.0388918 4.6181579
-14.988118 -7.9768753 4.6352768
-15.166303 -7.8344083 4.6602964
-15.196892 -7.7324529 4.6550293
-15.286312 -7.6602383 4.6679344
-15.484157 -7.5230861 4.6998019
-15.399639 -7.5991702 4.6882138
7.2719483 4.4742246 4.6011624
7.2442141 4.5496101 4.6099386
7.2276411 4.6324959 4.6263051
7.1067305 4.7417846 4.6040087
7.055995 4.8341107 4.6092272
7.1205282 4.8143926 4.6319981
6.3834901 5.2290134 4.6971812
8.2106905 5.2339983 4.6234918
8.0828524 5.3642631 4.6063347
8.1670027 5.3482184 4.6355023
8.2049761 5.3014379 4.6385045
9.1819201 5.331542 4.6917677
6.1258602 5.4739656 4.6764035
2.6742613 5.5248985 4.6556897
6.1140695 5.5312734 4.6932235
8.9550381 5.5739527 4.6610498
9.0280447 5.542829 4.6812587
2.4501157 5.6706462 4.6855025
2.5331244 5.6242056 4.6786537
8.1217489 5.6081166 4.6865454
2.3836572 5.7081957 4.6919489
8.8751755 5.8312173 4.6925759
8.7946091 5.934063 4.6881299
2.9552546 6.1906056 4.6636791
2.5793757 6.3831763 4.6805458
5.7853703 6.3747129 4.6391139
6.5980086 6.4195046 4.6380081
6.4683161 6.5695419 4.6449823
7.0347619 6.8634157 4.6668148
6.8510232 6.9774351 4.6432228
6.9398594 6.9389343 4.6599512
7.66114 7.0938277 4.61376
5.1710987 7.5635386 4.6161861
5.2412715 7.516768 4.6168609
0.53000927 7.6381884 4.6461334
0.65006906 7.6637397 4.6672306
4.0192919 7.6196389 4.6424346
5.099041 7.6075182 4.6141615
3.2645164 9.210886 4.6402206
-2.349117 9.5043449 4.6487989
-2.2611847 9.5242081 4.6481557
-2.1471381 9.5644531 4.6545897
-2.0135486 9.6604214 4.6856875
4.9363422 9.958786 4.6017418
4.8205633 10.03277 4.6082449
4.9002686 10.040367 4.6254582
1.8681276 10.292086 4.6222482
1.9628494 10.274857 4.6224499
2.0574346 10.256853 4.6226521
-1.2588228 10.343692 4.6044641
1.5572389 10.382539 4.6392236
1.68233 10.349105 4.6331611
1.7432101 10.323255 4.6262898
1.8054148 10.306058 4.6234608
-0.56260145 10.484502 4.6396279
-0.49860644 10.495066 4.6428614
1.3728874 10.462951 4.6630707
1.4661586 10.428994 4.6537743
1.2522614 10.545316 4.6925759
1.3141068 10.514743 4.6824713
-3.385397 10.685873 4.6407595
-3.6092653 10.704047 4.6767163
-3.4659762 10.71149 4.6610332
-3.3211341 10.710856 4.6426721
-3.2572286 10.737222 4.6453495
-3.1978545 10.779151 4.6549125
-3.1383457 10.821641 4.6648583
-3.0822141 10.877141 4.6805415
-2.4431379 10.879232 4.6162777
-3.0196047 10.910987 4.6870446
-2.9605513 10.958744 4.6996675
1.9295541 11.843835 4.6015563
4.4708939 12.247847 4.6402063
4.381537 12.354659 4.6651855
4.3201914 12.423134 4.680944
-5.6295142 13.197812 4.695291
-5.2867131 13.288721 4.6800518
-3.8733392 -11.891113 4.7956152
-4.6490827 -11.559491 4.7777133
-13.786364 -10.317858 4.7011185
-13.957146 -10.180875 4.7163939
-14.01622 -10.092789 4.7153406
-14.049578 -9.9864759 4.7058592
-14.262874 -9.7479506 4.7163939
-14.709918 -9.2781267 4.7479982
-14.774762 -9.19279 4.7506318
-15.563096 -7.4437528 4.7098098
-0.96300811 -7.4093728 4.774673
-1.053147 -7.3919921 4.7714424
6.8891015 4.7795296 4.7728701
6.9532619 4.7298069 4.7869692
6.8319168 4.8022194 4.7535768
6.357305 5.273077 4.7016335
6.3167667 5.3383565 4.7078171
6.2351103 5.4691563 4.7211742
6.1139817 5.5997944 4.7194424
6.1177425 5.672658 4.7491245
6.1081467 5.8047781 4.7966156
8.8826256 5.9144602 4.7156143
2.9248791 6.3254871 4.7378931
2.4806638 6.479774 4.7170906
2.5155699 6.4521031 4.7080951
6.1253376 6.4251471 4.7838044
5.8566842 6.614614 4.7610335
5.6590681 6.7585869 4.7503595
5.7600107 6.7099361 4.7655406
5.4450655 6.9237595 4.7468019
5.5553446 6.9318013 4.7871256
6.442863 7.0012708 4.7936883
7.8496361 7.1794095 4.7006598
4.2301621 7.7863297 4.7752657
1.7567545 9.764513 4.7109947
1.8451813 9.7408829 4.7075634
1.9731702 9.760006 4.7281523
2.0685525 9.7683525 4.7412348
-1.6223255 9.8930788 4.7603221
1.9224459 9.8189144 4.7508855
2.1739657 9.8190508 4.7753348
-1.6886088 9.9158869 4.7761927
-1.317975 9.9372921 4.7598934
-1.2575426 9.9496737 4.7620382
-1.1978699 9.9688616 4.7676144
1.6370255 9.974885 4.7997842
-1.1394407 10.000257 4.7791953
-2.4716516 10.482889 4.7592664
-0.048238758 10.668693 4.7144022
0.017176762 10.639518 4.701468
0.14837377 10.684236 4.7216773
1.0360429 10.67852 4.7408762
1.1621084 10.619992 4.7208691
0.083097301 10.721531 4.7378445
0.2153566 10.754455 4.7532034
0.94178778 10.733666 4.7612872
-4.1045403 10.837852 4.797976
-0.11527888 10.816365 4.7798796
-2.9017317 11.008867 4.7134385
-2.8421781 11.057784 4.7268267
-2.7399926 11.082064 4.726253
-2.6456313 11.139689 4.7402148
-5.9535503 13.274932 4.7609138
-5.8424487 13.244256 4.7369666
-5.7277875 13.203129 4.7095976
-5.5462332 13.341604 4.7281027
-5.3999009 13.334434 4.7077317
-5.139379 -12.728204 4.8851337
-2.8867311 -12.385097 4.876533
-3.8644271 -12.115694 4.876533
-3.7677524 -12.067876 4.8478894
-3.8279288 -11.127363 4.8718028
-3.7583997 -11.14714 4.8702726
-3.6873231 -11.162095 4.8668299
-3.8808372 -11.060075 4.8526764
-15.007082 -9.5947771 4.8628268
0.75217873 -9.5833979 4.8431821
-12.975764 -7.0083804 4.8259149
-13.081447 -6.9621196 4.8492403
7.316113 4.3456087 4.8438597
7.2696838 4.439539 4.8488064
6.5989237 4.5997815 4.8811378
6.5524192 4.6273632 4.8676496
7.0357513 4.660718 4.8040361
6.4360399 4.7555485 4.8559775
8.6381588 5.3585601 4.826807
7.7989211 5.6199756 4.8431821
6.1477737 5.8423266 4.8277817
8.2940493 5.8786964 4.8272362
8.4261866 5.8950129 4.8829975
6.3988991 6.3904586 4.8734655
6.4627333 6.3365269 4.8774977
6.1878767 6.4115119 4.8018317
6.2646279 6.4118323 4.83077
6.3348055 6.4045663 4.8544898
5.8693023 6.7113895 4.804678
7.5995898 6.8446531 4.8564038
6.5479026 6.9424696 4.8080864
5.4515495 7.0649424 4.8089476
6.5283136 7.0073462 4.8251843
6.7050891 7.0223002 4.8917761
0.77434808 7.1479654 4.8880081
0.83889365 7.1298189 4.8806992
5.4139657 7.1059618 4.8141661
7.4284587 7.1151633 4.8842845
10.291694 7.4081068 4.8625693
0.79374063 7.5531263 4.853291
0.8614077 7.5291348 4.8427906
0.93956745 7.5932665 4.8893685
0.75434607 7.628293 4.8985229
1.7102714 7.8896909 4.8987761
1.8530439 7.8477216 4.8930697
-1.8469046 10.09524 4.8731322
-1.76843 10.012978 4.828094
-1.0838642 10.060948 4.8049316
1.5824085 10.026679 4.8199444
1.7095814 10.03144 4.8319545
-1.0262169 10.107852 4.8242335
-0.93421471 10.128515 4.8298101
-0.84170836 10.145735 4.8340993
-0.77764124 10.12729 4.822947
1.4740508 10.147254 4.8688431
1.536556 10.139804 4.8697009
-3.5852852 10.270459 4.8069601
1.3566691 10.219203 4.8950081
1.4189743 10.208002 4.8937211
22.367125 10.491812 4.8022809
-4.0466552 10.886216 4.8083038
22.341829 10.816402 4.8249874
-0.25060403 10.927526 4.8299985
-0.18450159 10.98556 4.8550582
0.45504102 10.957033 4.845964
0.55752307 10.986692 4.8611207
0.65826058 10.975109 4.8584938
22.304111 10.96758 4.831284
-4.0329728 11.056666 4.8725677
-1.1362923 11.025667 4.8979015
-0.38989767 11.071713 4.8954763
22.260107 11.11607 4.8364358
4.185946 13.061923 4.8814459
-3.0190091 -12.602326 4.9692655
-4.0422769 -12.15596 4.9123368
-5.0117335 -12.032517 4.9982672
-4.8663597 -11.888491 4.9259424
-4.3336592 -11.234953 4.9854116
-4.2721672 -11.281206 4.9942098
-4.1370296 -11.235452 4.9569139
-4.3991356 -11.199551 4.9815865
-3.9872236 -11.143927 4.9001093
-15.616009 -9.4523869 4.983449
-15.45083 -9.4824286 4.9492111
7.8326182 -8.0532274 4.9641876
-14.687819 -7.718636 4.9811296
-13.597381 -6.7098198 4.9618254
6.7065048 4.5535131 4.9190083
8.4126444 5.2383833 4.9930129
8.1982002 5.460804 4.9628668
8.9151363 5.4549127 4.9627795
8.6756887 5.8346987 4.9644952
6.633409 6.3851452 4.9617028
3.436003 6.4677124 4.9790888
6.9531903 6.9331951 4.9471188
7.5884714 7.0919333 4.9318962
9.8294573 7.0134678 4.9991827
0.93260205 7.1673737 4.9138703
1.0257626 7.1926455 4.9394522
5.0811224 7.5935841 4.9237514
5.1434293 7.5855794 4.9389319
0.71211433 7.6822815 4.9302931
0.98983377 7.6157694 4.9076772
4.9602051 7.6646767 4.9199562
5.0363736 7.6275568 4.9256487
0.64406323 7.7208042 4.9510241
4.8908792 7.7122769 4.9213796
1.5708894 7.9508667 4.9179707
0.93697238 8.0906715 4.9423532
0.16381469 8.1131325 4.9241958
0.23848017 8.1113186 4.9241958
0.99291521 8.1365356 4.9739981
9.8178625 8.4353819 4.9635372
1.7562498 9.6853371 4.9592671
1.9944961 9.6445665 4.961967
-1.2454522 9.7218542 4.9381199
-1.1569425 9.7417316 4.9426193
1.9473892 9.7170429 4.9930129
-2.009851 10.27217 4.9700718
1.2657771 10.25766 4.9076614
1.1832843 10.373481 4.9576325
-3.4761474 10.579763 4.9209399
-3.2262883 10.69779 4.9375114
-3.309653 10.735482 4.9641876
-3.1838725 10.796344 4.9738879
-1.2101822 11.075771 4.9233651
-3.9958711 11.167328 4.9104376
-1.0442533 11.13715 4.9429679
-0.94686031 11.206949 4.9698462
-0.84529388 11.237488 4.9797487
-5.0260296 11.992139 4.9860935
4.285646 13.095984 4.9039102
-17.896509 -18.677799 5.0281987
-15.343192 -13.600041 5.0550056
-15.430004 -13.508839 5.0562024
-2.9239774 -12.902504 5.0730977
-14.042278 -12.219815 5.0819488
-13.844707 -12.197969 5.0374398
-14.298832 -11.987782 5.0940638
-3.1266034 -11.863056 5.0791297
-2.9317379 -11.85936 5.0577087
-3.0275357 -11.780003 5.035522
-4.6406016 -11.203749 5.0206037
-4.5644546 -11.214041 5.0125709
-4.4869838 -11.220389 5.0030079
-15.306562 -10.187957 5.019794
-15.359917 -10.08802 5.0168967
16.027775 -9.5122223 5.0882697
16.058363 -9.3976192 5.0795784
16.067261 -9.2709465 5.0643029
16.061794 -9.1368876 5.0448141
16.075483 -9.0145693 5.0316453
16.091654 -8.8942957 5.0195308
16.140842 -8.7926226 5.0179505
16.232738 -8.7139511 5.0298018
-14.917963 -8.0747366 5.0924029
3.0817854 -7.6775541 5.0201693
-13.577121 -7.0134897 5.0007014
-29.99721 -2.5396974 5.0972047
-30.027102 -2.1714654 5.0973716
-30.056408 -1.8031185 5.098206
-30.039833 -1.4324068 5.0920296
-30.026573 -1.0626526 5.0871882
-30.002853 -0.69330317 5.0813451
-30.019947 -0.3251873 5.0831814
-30.010532 -0.14093129 5.0813451
-30.009846 0.043211095 5.0811782
-29.984381 0.41116387 5.0773387
-29.952705 0.59456939 5.0724974
-29.879843 1.3272787 5.0641503
-29.828794 1.5084518 5.0569715
-29.81307 1.6911144 5.0559702
-29.807053 1.8743216 5.0568047
-29.723799 2.2355959 5.0469551
7.4195189 4.8172565 5.0355563
7.5177264 4.8157053 5.082058
-29.593664 5.1788936 5.086854
7.1768074 5.1107264 5.0152736
9.2912521 5.1502919 5.0442772
9.2367373 5.2317705 5.0406313
6.2840023 5.3676972 5.0149813
6.3161664 5.3284869 5.0144625
9.068347 5.396841 5.0108204
9.1737537 5.3459263 5.0417042
6.2580614 5.4123058 5.0206881
9.0397024 5.4551821 5.0133939
-29.57052 5.5496655 5.0941997
6.2714763 5.525578 5.0720463
-29.548494 5.7334437 5.0963697
5.9419498 5.777154 5.0289879
6.051434 5.7409091 5.0616713
6.1278048 5.7071514 5.0813842
5.8473201 5.8623624 5.0244923
6.1467161 6.2879243 5.0053792
6.2279735 6.2933307 5.0400085
6.3070669 6.2955194 5.0726585
6.7767162 6.3647337 5.0100913
7.0476894 6.3009467 5.0945339
6.7509322 6.4189334 5.0200539
5.8085952 6.6385379 5.0212097
3.0132558 6.7322769 5.0145092
5.6060896 6.8182902 5.0246725
5.6435809 6.9503865 5.0964041
9.8896799 6.9652596 5.0079803
3.440006 7.0411625 5.0078335
9.8341618 7.1082883 5.023664
1.1200784 7.3681173 5.0667963
4.7998571 7.4628396 5.0508919
4.8645411 7.462369 5.0706797
4.9363494 7.4223204 5.0741425
1.338336 7.8372459 5.0807972
1.4077704 7.8101268 5.0713739
1.3713069 8.2668829 5.0850158
1.4208452 8.2515726 5.0808654
1.2470112 8.3046579 5.0959101
9.8684597 8.6916122 5.0426645
1.8916425 9.7489729 5.0033617
-1.4059423 9.9994459 5.087501
-1.3355229 9.9406166 5.0533051
-1.0600111 9.9683228 5.0506058
-0.84577459 9.9897242 5.0510554
1.4324487 9.9794436 5.079402
-0.97114658 10.007926 5.0659037
-1.9635857 10.373066 5.0129652
-3.0685008 10.896233 5.0021811
-3.5083876 10.903029 5.061192
-3.4491169 10.948779 5.0725088
-3.0064356 10.932494 5.0102649
-2.9620616 11.035542 5.0490661
-2.8453794 11.004276 5.0225921
-2.7469492 11.042038 5.0280485
-0.74679947 11.319224 5.0126896
-4.0624971 11.576982 5.0795121
-3.9589231 11.507334 5.0381999
-0.6885826 11.511682 5.0959516
1.92176 11.944545 5.0087457
2.0030892 11.980827 5.0290194
2.1406403 11.903511 5.0072155
2.0863574 12.024753 5.0527358
-5.8021493 12.991012 5.0635066
-5.5156388 12.986349 5.0212607
-5.729907 13.04362 5.0702124
-5.6322055 13.037884 5.0544538
9.7174244 13.771659 5.0599122
1.6979879 14.09199 5.0514364
-14.213565 -12.216426 5.1167135
-14.244864 -12.092149 5.1011748
-14.396639 -11.920123 5.1027551
-3.3988392 -11.995509 5.1617546
15.996274 -10.032377 5.1549015
16.01733 -9.9091673 5.1419969
-13.963647 -9.8157501 5.1240311
-13.893014 -9.894022 5.1202931
16.021833 -9.7765303 5.1240878
16.017874 -9.6397362 5.1038084
-14.716947 -8.8032236 5.1481833
-14.785534 -8.7215157 5.1533589
18.963007 -8.7990665 5.1541095
-14.76343 -8.5868092 5.1271935
-14.793406 -8.4831963 5.1194305
-14.998257 -8.237587 5.1369696
-15.003566 -8.0024319 5.1047664
-30.160822 -3.4882259 5.1407762
-30.035425 -2.9145699 5.1093912
7.6323538 4.8233423 5.1394434
5.8962059 5.54072 5.1704535
5.9554133 5.5279408 5.1925311
6.26999 5.6276541 5.1125107
5.5486355 5.7875671 5.1236062
5.6853104 5.7509923 5.1677613
5.7437372 5.7392278 5.1887617
6.2356915 5.7365861 5.141562
-29.550461 5.9221978 5.1028805
5.356051 5.9413033 5.1117597
5.498847 5.9880085 5.1952233
5.5301237 5.9118638 5.1731462
7.5016294 5.9957776 5.1751809
7.6044989 5.9265385 5.19558
7.4477768 6.0659561 5.1763668
