# .PCD v0.7 - Point Cloud Data file format
VERSION 0.7
FIELDS x y z
SIZE 4 4 4
TYPE F F F
COUNT 1 1 1
WIDTH 266
HEIGHT 1
VIEWPOINT 0 0 0 1 0 0 0
POINTS 266
DATA ascii
-4.7125444 -19.917027 -1.5820327
-4.5842094 -19.919333 -1.5799519
-4.4660358 -19.965572 -1.5814161
-4.4717512 -15.831503 -1.2716066
-4.3747916 -15.859604 -1.2716837
-4.2761006 -15.881335 -1.2712983
7.489984 -5.4644818 -1.1778374
7.5193477 -5.4155221 -1.1772074
7.5209026 -5.3468652 -1.1722922
7.5495086 -5.2977676 -1.1716622
7.6112318 -5.2716794 -1.1761991
-3.3463993 -13.065014 -1.0424862
-3.2625489 -13.07079 -1.0413302
-3.1643875 -13.016933 -1.0354731
-3.4001577 -12.943946 -1.0344713
3.850323 -5.3176694 -1.0198756
3.9009962 -5.318645 -1.0246342
3.9489126 -5.2476544 -1.0202338
4.0170636 -5.2040987 -1.0212572
4.1456389 -5.2365351 -1.0375285
-3.9100585 -10.956509 -0.8992185
-3.8315594 -10.948298 -0.89659822
-3.9339228 -10.813318 -0.889431
-4.4763851 -10.646786 -0.8927449
-4.3858418 -10.613236 -0.88765848
-4.1555505 -10.604907 -0.88041413
-4.057066 -10.640781 -0.88025999
-3.9613781 -10.684275 -0.88079947
-4.3022566 -10.594684 -0.88388216
-4.2271929 -10.595879 -0.88180137
-4.3233657 -9.6152964 -0.81490713
-4.264286 -9.6416426 -0.81490713
1.212054 -5.2269559 -0.83352268
1.0773599 -5.1458464 -0.81671405
1.1428957 -5.1433306 -0.81847936
1.2379516 -5.0561547 -0.80865508
1.3663999 -5.0417361 -0.81146938
1.4573087 -5.0097651 -0.81049716
1.4795659 -4.9723158 -0.80589211
-3.9786189 -8.7053566 -0.73984385
-4.1360264 -8.626153 -0.7394585
-4.054121 -8.6588449 -0.73903465
1.4043872 -4.9406724 -0.79790992
5.6389585 -1.700086 -0.74821538
5.708055 -1.7591969 -0.75880152
5.6105251 -1.6353545 -0.74241817
5.5938511 -1.5562866 -0.73762918
5.7965617 -1.5172533 -0.76119602
5.8149285 -1.5602472 -0.7648508
5.710772 -1.4201505 -0.74758524
5.5993485 -1.3196964 -0.73082381
5.63164 -1.3638352 -0.73611689
5.5246139 -1.2485948 -0.71954447
5.4636178 -1.1470479 -0.70923138
5.4543362 -1.0752894 -0.70624876
5.5317326 -0.91524541 -0.71229798
-5.0553412 -10.384241 -0.63762456
-5.079576 -10.273367 -0.63271844
-5.0954728 -10.148313 -0.62693042
-3.8863878 -6.7763281 -0.60382044
1.2012212 -5.3070207 -0.6912517
1.0355982 -5.1600742 -0.66860908
1.1220978 -5.1782088 -0.67310393
1.3293927 -5.1361041 -0.67398614
1.2694596 -5.0316238 -0.65924114
1.7863827 -2.0445499 -0.6203301
1.803184 -2.0258508 -0.61966187
0.06988807 -2.9224484 -0.51862311
0.15153739 -2.9419882 -0.52264076
0.2405785 -2.9208345 -0.51995069
-0.031057864 -2.8903873 -0.55492836
0.024265246 -2.8886604 -0.56858635
1.7631316 -2.041358 -0.55713153
1.7470051 -1.9731116 -0.54432082
1.6684468 -1.8393199 -0.53481054
1.6744785 -1.7790794 -0.53528762
1.7412187 -1.7501855 -0.53459704
2.205122 -1.1081568 -0.50973189
2.2426105 -1.0468206 -0.53849626
2.2800081 -0.97557431 -0.51222664
2.3232923 -0.94697767 -0.55335397
2.3444207 -0.84992629 -0.54238462
2.369324 -0.7902509 -0.57065916
2.4010017 -0.78447843 -0.57711858
4.5537672 1.6987915 -0.50998235
4.5339613 1.7231677 -0.50893879
4.6169782 1.7872164 -0.51947862
4.4606023 1.8538016 -0.50685167
4.544838 1.8236197 -0.51384348
-3.9390817 -6.7265973 -0.43035662
-3.8579373 -6.7774839 -0.43054956
-3.6946416 -6.7286973 -0.4237968
-4.2778964 -6.6794443 -0.43790865
-4.1153288 -6.6026392 -0.42952973
-3.9505644 -6.606144 -0.42495441
-4.1594977 -6.5831723 -0.42991561
-3.9729047 -6.5518975 -0.42302504
0.47842905 -3.0779727 -0.48389342
-0.068888344 -2.9043388 -0.45129958
0.092362873 -2.9303803 -0.45544416
0.15511684 -2.9262488 -0.4552395
0.24536178 -2.9249518 -0.45598143
-0.033083901 -2.8884609 -0.4487412
0.037555721 -2.8684382 -0.44565067
1.7289813 -2.0372961 -0.45056176
1.7329526 -1.9506229 -0.46290037
1.6640872 -1.8272057 -0.43844527
1.6749141 -1.7724478 -0.43264589
1.7411407 -1.7326539 -0.43579015
1.8005857 -1.7271709 -0.44263756
2.2238932 -1.1213291 -0.4418515
2.1935401 -1.0310812 -0.43001699
2.2099009 -1.0637553 -0.43512636
2.2363844 -0.9440493 -0.43069386
2.2891345 -0.88475955 -0.43538839
2.35058 -0.84259659 -0.44301602
4.4364276 1.2478861 -0.48358053
4.3621426 1.3434525 -0.47893673
4.3360672 1.4529914 -0.47984985
4.3535957 1.5636396 -0.48538935
4.661972 2.4601567 -0.40745357
4.7162228 2.5259027 -0.41354188
4.8355398 2.628114 -0.42541021
-3.7080724 -5.2080736 -0.35296187
-3.6932313 -5.1204381 -0.3485519
-3.8014784 -5.0067883 -0.34706354
-3.7481983 -5.0645161 -0.34785366
-3.9594879 -4.9574494 -0.35027912
-3.8393903 -4.9613352 -0.34634691
1.2531736 0.78256327 -0.338532
1.322364 0.75722927 -0.3498013
0.99888563 0.86736202 -0.30225778
4.3595157 1.9527633 -0.36924759
4.3409915 2.0575869 -0.37133479
4.3684597 2.1699617 -0.37703776
4.4459944 2.2768748 -0.38610598
4.4567094 2.3169892 -0.38826388
4.805387 2.5747366 -0.30097952
-0.21747881 0.11205247 -0.21997324
1.1525003 0.78521347 -0.23471777
1.2582806 0.76966447 -0.24682312
1.3261327 0.73071629 -0.25340775
0.96025342 0.87682444 -0.24460161
1.0618571 0.85662836 -0.24195585
1.1240396 0.81194413 -0.2658025
0.94632316 0.93971181 -0.24574479
0.98830032 1.0333863 -0.26252615
1.007741 1.0826759 -0.24277318
1.0107555 1.1137388 -0.26682276
4.8184319 2.4686706 -0.29890314
4.8052011 2.5368121 -0.29998726
3.2603495 8.4466496 0.18807435
3.3506742 8.4482994 0.18879084
3.4616978 8.4250393 0.1892062
-18.033817 -9.7769232 0.42611632
-18.073698 -9.5134382 0.42426798
-18.207779 -9.3004808 0.4247041
-18.174297 -9.1432037 0.42260656
-18.401768 -8.1521397 0.41807914
-6.8987284 3.3734024 0.53564507
-6.8695893 3.4378467 0.53581905
-6.8733926 3.545969 0.5394721
-1.715076 8.3856125 0.59701669
-1.662815 8.3920641 0.5967384
-1.5562507 8.3932009 0.59541631
-1.4448149 8.3634987 0.5920068
-1.3978925 8.3987751 0.59388554
-1.6161759 8.4275818 0.59854752
-1.5068319 8.4143753 0.59625131
-5.1579957 4.9788985 0.66757077
-1.7837912 8.4569235 0.60286164
-1.8680645 8.5949659 0.61350775
-1.3647881 8.5224428 0.60202664
-1.9660395 8.6605282 0.61945701
-1.3283978 8.6341839 0.6093328
-1.279181 8.6678314 0.61114192
-2.2532284 8.7938633 0.63319957
-2.1614685 8.7705946 0.63006836
-2.0650156 8.7241526 0.62533677
-1.2417452 8.7871342 0.61900473
-2.3167784 8.816535 0.63584369
-1.1672945 8.8476048 0.62248385
-1.0658545 8.9216843 0.62672842
-0.99007541 8.9886665 0.63076419
-0.94449472 9.0868492 0.63723534
-0.88842994 9.0894947 0.63702661
-0.83564246 9.1275587 0.63932282
-0.75283468 9.1502323 0.64040136
-0.67686403 9.2697392 0.64829892
-0.62343341 9.3254757 0.65191722
-0.56626207 9.330122 0.65198678
-0.513403 9.4141045 0.65762299
-17.694775 -4.6662831 0.79578245
-17.091492 -4.061327 0.76393729
-17.037247 -3.9381542 0.76041824
-16.991882 -3.817991 0.75733364
-16.818796 -3.6708386 0.7486012
-16.889872 -3.5779233 0.75077343
-16.865513 -3.4647727 0.74873149
-16.483744 -3.2810636 0.73087561
-16.262236 -3.1333609 0.72018814
-16.26053 -3.0296757 0.71927577
-16.410572 -2.9535594 0.72509742
-16.773703 -2.8068612 0.7395646
-16.681356 -2.8967392 0.7362628
-16.756088 -2.6983275 0.73804402
5.9644351 15.468246 0.7209267
4.5140681 15.573662 0.7051127
4.6112456 15.551417 0.70537341
4.7074499 15.525699 0.7055037
4.8070617 15.510837 0.70615542
4.9175253 15.529624 0.7083711
5.0225587 15.529576 0.70976132
5.1312218 15.539259 0.71162945
5.2437024 15.558605 0.71397549
5.3566132 15.577155 0.71632153
5.4659801 15.58359 0.7181462
5.5692344 15.571393 0.71914548
5.6698074 15.551007 0.71979713
5.7696433 15.5281 0.72036189
5.8679967 15.500814 0.72075289
-17.954794 -5.0901089 0.811553
-17.960653 -4.9729133 0.81042343
-17.911745 -4.8412399 0.80686092
-17.906912 -4.6048975 0.80403703
-17.888315 -4.4832783 0.80195165
-6.2580881 6.1909351 0.81972128
-6.2607884 6.2700834 0.82509893
-7.0341806 6.3456249 0.88216698
-6.2236528 6.3487844 0.8278805
-6.9787898 6.4131827 0.88258421
-6.6477504 6.4961925 0.86552405
-6.1743169 6.4947276 0.83446348
-6.8682089 6.5487981 0.88369679
-5.7966423 6.565321 0.81554896
-5.6834369 6.5578032 0.8080852
-5.6386852 6.6284356 0.81035674
-5.5876598 6.6507115 0.80887324
-6.4688277 6.721446 0.86867648
-6.4260721 6.8431468 0.87414682
-6.3562002 6.8525176 0.87034541
-6.3416123 6.9214892 0.87414682
-5.8983459 7.1086144 0.8601464
-5.9063668 7.2078242 0.86774927
0.33827055 13.375216 0.93323874
-0.25138167 14.228205 0.99259251
-0.16453439 14.26938 0.99537575
0.66236013 15.149684 1.0577216
-5.5769205 15.931035 1.5717583
-5.5818458 16.264439 1.6012427
-5.5086079 16.377655 1.609031
-5.3644023 16.621216 1.6263692
-5.2893157 16.739267 1.6347139
-5.1759157 16.737162 1.631376
-5.0912857 16.828646 1.6372173
-5.0167437 16.956957 1.6466745
-29.385347 8.545228 2.8496928
-29.361948 8.7341728 2.852567
-29.323997 8.919095 2.8541431
-29.290586 9.1056547 2.8562758
-29.256939 9.2924404 2.858501
-29.237255 9.4840717 2.8622098
-29.209703 9.6736202 2.8652694
-29.18187 9.8635054 2.8684218
-29.157509 10.055036 2.8720379
-29.202124 11.083917 2.9085689
