# .PCD v0.7 - Point Cloud Data file format
VERSION 0.7
FIELDS x y z
SIZE 4 4 4
TYPE F F F
COUNT 1 1 1
WIDTH 254
HEIGHT 1
VIEWPOINT 0 0 0 1 0 0 0
POINTS 254
DATA ascii
-28.785011 18.506487 2.3869536
-28.796286 18.764454 2.3973908
-28.6856 18.94409 2.3978083
-28.664162 19.183552 2.4058104
-28.607639 20.443556 2.4525697
-28.552771 20.670183 2.458693
-30.02347 0.75931877 2.796658
-30.000334 0.94296199 2.7949891
-29.953188 1.12549 2.7911875
-29.887028 1.3066921 2.7857172
-29.837675 1.4880176 2.7819157
-29.818041 1.670513 2.7809885
-29.759529 1.8504755 2.7765381
-29.723774 2.0314124 2.774313
-30.191645 -1.0895995 2.8132546
-30.156809 -0.53280598 2.8086185
-30.137608 -0.34750471 2.8065789
-30.12822 -0.1625182 2.8055589
-30.106745 0.02233189 2.803519
-30.107037 0.20706983 2.8036118
-30.086283 0.39155304 2.8018501
-30.071367 0.57592285 2.8007376
-1.6567204 10.843724 2.9947574
-4.0306835 11.442559 2.9910638
-3.965152 11.480842 2.9946547
-3.8494411 11.487331 2.9869943
-3.7558556 11.560193 2.996809
-1.5618187 11.940684 2.9690409
-1.4543343 11.974734 2.9740677
-3.6040628 13.105684 2.9983909
-5.2741241 14.32838 2.9678433
-5.1734376 14.325387 2.9605925
-5.0782304 14.336505 2.9563947
-4.9875913 14.359976 2.9548683
-4.8895788 14.361502 2.9489532
-4.7988806 14.383784 2.9474268
0.41852722 15.089661 2.9342608
-0.51192635 15.21643 2.9594476
-14.823496 -5.7683587 3.0918691
-14.883368 -5.6867547 3.0970209
-0.99335253 10.97679 3.0089793
-0.58695394 10.974126 3.0002882
-0.92954767 11.024976 3.0205674
-0.8615064 11.025662 3.0192506
-0.75981361 11.030184 3.0184605
-0.65761 11.026171 3.0155635
-4.6401548 11.360433 3.0255346
-4.6072454 11.4806 3.0499516
-4.5303059 11.492394 3.0456426
-4.4474359 11.488285 3.0372643
-4.3789315 11.520803 3.0387006
-4.2557001 11.51457 3.0266118
-4.1461091 11.543714 3.0240984
-3.7122264 11.669067 3.0190713
-3.6509483 11.724998 3.0276892
2.9871099 11.986491 3.0456426
2.8498363 12.064767 3.0564148
2.9196887 12.03007 3.0521059
2.5672898 12.19948 3.0736501
2.6377749 12.163571 3.0686233
2.7452936 12.119787 3.0638356
-0.23975374 12.222575 3.0140443
2.4954927 12.230225 3.0774803
4.7444768 13.192739 3.0927436
4.826345 13.166129 3.09339
4.9512749 13.13159 3.0958672
5.0784602 13.102377 3.0998523
4.6588907 13.208709 3.0897279
3.2246346 13.481444 3.0578461
-0.31602034 13.779987 3.0406127
5.5766573 14.584963 3.0351989
5.6916904 14.61633 3.0489371
5.518106 14.701618 3.0523717
5.3703098 14.859622 3.0712616
5.4545994 14.807968 3.0674455
5.2133379 14.998582 3.0865264
-13.76975 -9.0161428 3.1992946
-13.928389 -8.7580242 3.1981497
-14.562199 -6.7220311 3.1176283
-14.631941 -6.5376186 3.1151478
1.6624136 5.3444047 3.1860361
1.7318665 5.3357806 3.1932917
2.4659181 5.3743339 3.1865149
2.2460952 5.4599457 3.1816523
2.3339775 5.4348497 3.1874638
2.6549776 5.728056 3.1808691
0.94535953 6.1812859 3.1504982
1.0436591 6.1871376 3.1612968
1.1578813 6.1695886 3.1626465
3.7611768 6.1662469 3.1917064
3.485111 7.569561 3.1955254
4.1347876 7.9642487 3.1936102
4.2128081 7.9350386 3.1972983
-1.4351227 10.396637 3.1507285
-1.0416014 10.344261 3.1211131
-0.94729722 10.363952 3.1242759
4.626534 10.387096 3.1043186
-1.6024287 10.425517 3.1665423
-1.5345174 10.408623 3.1584916
-1.3413242 10.424655 3.1553288
-1.2432904 10.41939 3.1501534
4.7275848 10.441121 3.1290751
-2.1521218 11.286165 3.1367128
-2.0452456 11.2893 3.1322355
0.88156509 11.666568 3.1941271
0.83867204 12.633064 3.1215265
6.2595158 12.772676 3.1377659
6.1509223 12.849073 3.1425052
6.384326 12.827571 3.1608155
6.5007944 12.863109 3.1793413
6.771606 12.807744 3.1959283
6.0609827 12.966232 3.1573689
5.160193 13.074603 3.100714
6.0131397 13.072376 3.1741712
5.929595 13.10191 3.1724479
8.6295652 13.716952 3.1500659
-14.600023 -12.248974 3.2267995
-14.696164 -12.176773 3.2314737
-16.735361 -9.4486609 3.2540107
-16.767063 -9.1970596 3.2379844
-13.738706 -9.1167459 3.2050188
-16.800629 -9.0818157 3.233644
-13.848723 -8.9469318 3.204828
-16.805172 -8.8195229 3.2134442
-13.901705 -8.860734 3.2044463
-16.950563 -8.5016279 3.210773
-16.882265 -8.5974207 3.2077682
-17.006828 -8.3996439 3.2116077
1.9503191 5.2816124 3.204917
2.0067129 5.2841849 3.2175319
1.7714077 5.3456774 3.2056592
1.837541 5.325377 3.2068136
1.9041184 5.3063211 3.2091219
2.0522659 5.3058152 3.2383094
2.1035736 5.3408308 3.2674966
2.5825522 5.5386167 3.2932539
2.7253807 5.7409315 3.2017915
1.3782558 5.8664174 3.2474747
1.4411008 5.8898497 3.2676365
2.8179696 5.8431516 3.268383
5.0807743 5.8901591 3.2204545
1.4845048 5.909925 3.283766
1.5249138 5.9169016 3.2927794
5.0349503 5.9099703 3.214334
5.2395897 5.9994473 3.2977238
3.9812689 6.0980897 3.2181129
4.0440626 6.0714302 3.2235694
4.1123743 6.0525236 3.2334719
3.8787069 6.1448717 3.2110395
3.9403095 6.1170206 3.2152836
4.89748 6.1193447 3.2449358
3.7367566 6.2988143 3.2363012
3.7243631 6.3666263 3.2593396
4.7261653 6.3726416 3.284718
4.56218 6.5203438 3.2946637
7.4864073 6.5147915 3.2475479
7.5311527 6.6353712 3.2845578
3.8000925 6.8053031 3.2269573
3.9059892 6.8952103 3.2808928
7.0833826 6.8869357 3.2329307
7.1677647 6.8417425 3.2425718
7.0328636 6.9222689 3.2291985
2.9531562 7.2554421 3.2431507
6.979805 7.2157397 3.2851799
2.8790474 7.3296304 3.2602367
3.4578633 7.633328 3.2134275
4.3166456 7.8951426 3.2023277
7.1681972 8.192853 3.2680397
7.2259536 8.1573181 3.2714901
2.0406125 8.2932396 3.2750106
2.4627268 8.2421675 3.2986414
7.06774 8.2809296 3.2683272
7.1177917 8.2366819 3.2680397
1.8923618 8.3503399 3.2832456
1.9395359 8.3212938 3.2764428
7.0260558 8.335125 3.2726402
6.995615 8.4031057 3.2824161
2.5995958 10.339162 3.2004707
0.95549089 11.689783 3.202028
8.53543 14.138184 3.2101707
8.3866367 14.285034 3.219902
8.4620781 14.213063 3.2153225
-13.547221 -10.839812 3.3725491
-13.675799 -10.737778 3.3797998
-13.852527 -10.604351 3.3910577
-13.777113 -10.68133 3.3885772
-14.104629 -10.258312 3.3901036
-14.134614 -10.148103 3.3822803
-14.691538 -8.8647976 3.3353415
-14.494518 -8.8676872 3.3029039
-4.0070968 -8.6720276 3.3998117
-4.3787289 -8.4341717 3.3820415
-4.4668074 -8.3515491 3.3706417
-4.7460828 -8.2542553 3.3885798
-4.6433153 -8.2504454 3.3693006
-4.5603652 -8.2804031 3.3642714
-15.118066 -7.7827687 3.3051937
2.1696188 5.4109063 3.3184507
2.2494082 5.4164348 3.3385687
2.3499866 5.4222679 3.3639631
2.6572807 5.5646439 3.3231406
2.7331657 5.5905809 3.353502
4.8956227 5.6568961 3.3058207
4.9441047 5.6425738 3.3151171
4.8497047 5.780694 3.3343158
4.9517493 5.7932091 3.367661
5.6878724 5.7582307 3.3508945
5.8244958 5.7535787 3.3895292
4.7995081 5.8290019 3.3365388
4.6640339 5.9565549 3.3430057
5.5967493 5.9512753 3.3822613
5.6229668 5.9061155 3.3761408
5.3523345 6.0157881 3.3336811
5.4949441 6.0628695 3.3876166
5.5827656 6.0098743 3.3960321
3.1090715 6.2231627 3.3032296
4.6483126 6.5149651 3.3134072
4.7553062 6.5369062 3.3466868
3.9052804 7.0956092 3.3531895
7.5655222 7.0028386 3.3735063
4.9283175 9.844346 3.304987
-3.5896499 -12.021361 3.4251008
-3.7391992 -11.983773 3.4272077
-3.6540484 -11.968662 3.4164095
-4.9830933 -11.76565 3.4883091
-4.6195064 -11.698662 3.4337919
-13.957271 -10.54934 3.4007888
-3.7989368 -8.9313097 3.4541283
-3.8368337 -8.8689213 3.4390404
-3.9439049 -8.7458744 3.4143968
-3.866142 -8.7882967 3.4169114
-4.3007097 -8.6040192 3.4232819
-4.2561564 -8.6471519 3.4299877
-4.1621437 -8.6561699 3.4182527
-4.0650368 -8.6575108 3.4038353
-4.3329554 -8.5371437 3.4071882
-4.9420052 -8.2402496 3.4195938
-4.8473506 -8.2537527 3.4065175
-5.0742865 -8.1739292 3.4239526
5.5589023 6.0583129 3.4040649
-2.9466114 -12.651992 3.5465133
-2.8435719 -12.55787 3.5151727
-4.9227185 -12.032165 3.5491471
-4.8239708 -12.000382 3.5309746
-3.6284177 -11.418123 3.5966837
-3.3289149 -11.441195 3.577132
3.4749155 -7.7109938 3.5016081
3.6727526 -7.7651639 3.5563087
3.5500159 -7.6878605 3.505816
22.289885 11.16985 3.57499
-3.4230969 -11.501336 3.6024344
-3.2892962 -11.569193 3.6107726
6.5128655 -7.8907361 3.6412187
22.744423 10.878547 3.6151586
