# .PCD v0.7 - Point Cloud Data file format
VERSION 0.7
FIELDS x y z
SIZE 4 4 4
TYPE F F F
COUNT 1 1 1
WIDTH 348
HEIGHT 1
VIEWPOINT 0 0 0 1 0 0 0
POINTS 348
DATA ascii
-4.177361 -6.7761173 0.16535424
-3.9720285 -6.7167511 0.16209367
-3.8245518 -6.7478452 0.16111758
-3.7928286 -6.788641 0.16153294
-4.1393785 -6.6231847 0.16223904
-4.232769 -6.591238 0.1627167
-4.3091431 -6.3612142 0.15960152
-4.1664162 -6.3583574 0.15790893
-4.1983538 -6.280314 0.15692246
-4.2383304 -6.1747422 0.15557253
-4.1773834 -6.0066214 0.15197968
-4.5198555 -5.93786 0.1550118
-4.4049463 -5.9366751 0.15355805
-4.2147365 -5.9816937 0.15200046
1.7451024 -2.1296327 0.19204734
-8.2753916 2.4293234 0.17915452
-8.2549791 2.5338149 0.17937258
-8.2742462 2.6232555 0.18030713
-6.9750695 3.0936565 0.15850082
-6.6060801 3.0767381 0.15137742
-6.9353642 3.1527035 0.1582516
-6.5554476 3.102246 0.15065055
-6.4768195 3.1138203 0.14927986
-6.6723051 3.2583561 0.15424339
-6.7677293 3.35654 0.15692246
-6.7481818 3.4507065 0.15744166
-6.3179107 6.1674094 0.18340157
-6.1576619 6.3914275 0.18435688
-6.9177575 6.42908 0.19617383
-6.1300459 6.441402 0.18470994
-6.950995 6.5399151 0.19825064
-6.8832264 6.5562396 0.19746146
-6.1130047 6.502933 0.18539529
-6.2110882 6.6890464 0.18961117
-6.1205955 6.673244 0.18809511
-6.0285187 6.6543627 0.18651675
-5.9902415 6.6942077 0.18659982
-5.945466 6.7685871 0.18713978
-5.9175849 6.863152 0.18824048
-5.5378056 6.8789692 0.1834431
-5.8680434 6.9336863 0.188687
-5.7615075 6.9363046 0.18730593
-5.4267306 6.956841 0.18327695
-3.5447237 -13.110317 0.28211153
-3.4647236 -13.133754 0.28215304
-3.4077458 -12.016448 0.25945371
-3.2516632 -10.710885 0.2325177
-3.1632109 -10.775322 0.23327574
-3.343478 -10.659475 0.23206082
-4.1423392 -10.53869 0.23521754
-3.5432074 -10.500949 0.23021246
-3.4542992 -10.557302 0.23074205
-3.6301112 -10.440477 0.2296102
-3.8350735 -10.310481 0.2285095
-3.7437201 -10.355641 0.22873795
-3.940069 -10.207612 0.22728419
-3.8798423 -10.23814 0.22742957
-3.9636166 -9.7315063 0.21827091
-3.8945446 -9.7324371 0.21775171
-4.0041132 -9.6608229 0.21723251
-4.3582377 -9.5096226 0.21729481
-4.2185121 -9.5112095 0.21613182
-4.1291847 -9.5459185 0.21604875
-4.0438924 -9.5900106 0.21619412
-4.478456 -9.4635582 0.21748173
-4.2767925 -9.4851456 0.21613182
-4.9044442 -9.307642 0.21854089
-4.8421741 -9.3277998 0.21831244
-4.7484369 -9.3567543 0.2179594
-4.3726068 -9.3884459 0.21513495
-5.0538225 -9.2444248 0.2188524
-4.9642911 -9.2826643 0.2186655
-5.2691231 -9.1650209 0.21960005
-4.3738079 -8.8188276 0.20448101
-4.2769542 -8.8961658 0.20504174
-4.2810068 -8.7664404 0.20265344
-0.020639872 -3.000946 0.27945253
0.28838021 -3.0474339 0.21351349
-0.11203528 -2.9816465 0.20812087
-0.041023061 -2.9659407 0.22426975
0.052256335 -2.9531364 0.24068896
0.15148117 -2.9579566 0.23767661
0.23675711 -2.9893157 0.2091646
0.15783453 -2.89416 0.26990256
0.2110073 -2.8897715 0.26980984
1.5972875 -1.9492471 0.23466967
1.6127317 -1.9202659 0.26622501
1.5718472 -1.8369188 0.25684512
1.6479323 -1.8330829 0.27781832
1.7166736 -1.8289026 0.27275571
1.5524583 -1.7691994 0.21918574
1.6511997 -1.7875122 0.24768497
1.7314363 -1.758463 0.24612576
1.841118 -1.7771902 0.23828568
2.1633365 -1.1536802 0.23738727
2.2179928 -1.1581721 0.29837805
2.1713753 -1.0579722 0.26980048
2.2231588 -1.045132 0.22876662
2.1731265 -0.9820984 0.28436688
2.2443728 -0.97404319 0.24054806
2.3099294 -0.97595584 0.26628923
-2.6590931 0.19812974 0.24829924
-2.4211967 0.18591671 0.26840925
-2.3764675 0.17790541 0.28416955
-2.4048374 0.23184618 0.27235293
-2.364718 0.25842527 0.24652088
-2.406707 0.37478372 0.29044494
-2.3717251 0.33913836 0.24415377
-2.4163709 0.41779089 0.26043311
-2.3953748 0.41746747 0.22641775
1.1679516 0.79161602 0.23868898
1.2500088 0.7740016 0.25009885
1.3262023 0.76156944 0.2423491
1.0588768 0.87615246 0.24148382
1.1445141 0.83101237 0.25799781
1.240236 0.81673336 0.23762216
0.98515636 0.95833915 0.2428353
1.0345875 0.91721171 0.26572543
0.97513694 1.0140702 0.24707349
1.0046995 1.0357629 0.28048924
-4.7750325 4.6580305 0.29008242
8.3454266 11.466448 0.29459304
1.8335162 13.477923 0.28254765
1.9191384 13.487206 0.28298378
2.0488262 13.505972 0.28376257
2.1759748 13.50487 0.28414679
16.24332 -10.290935 0.39942953
16.28581 -10.178356 0.39893112
16.319872 -10.060924 0.39824575
16.354816 -9.9444952 0.39760196
-3.2120364 -6.5832806 0.3185389
-4.3595586 -5.9175196 0.31962502
18.789165 -4.1026053 0.39949185
0.07758902 -2.9247303 0.34887731
0.10423416 -2.9164636 0.34798929
18.988586 -2.9401186 0.39913878
0.15617335 -2.8828106 0.34427139
0.20899162 -2.8759885 0.34384516
18.988468 -2.8209071 0.39876497
19.013338 -2.7054696 0.39893112
19.028589 -2.5886204 0.39891034
19.033209 -2.4703989 0.39868188
19.065519 -2.1185369 0.39847422
1.6129239 -1.9330537 0.34884608
19.043358 -1.9978622 0.39774734
1.6555914 -1.87896 0.3591029
1.7441528 -1.8426069 0.35160482
1.8140197 -1.8068544 0.30530465
19.000536 -1.8755751 0.3966051
1.8264252 -1.7751334 0.3037062
2.1465931 -1.1185609 0.34708548
2.2401578 -1.147966 0.30015409
2.1495206 -1.0457824 0.34278008
2.1750255 -0.97682357 0.34189296
-2.4059272 0.23384733 0.34661236
-2.3903532 0.27683958 0.34505105
-2.409338 0.39208886 0.35001889
-2.393714 0.34447336 0.34678268
-2.4280496 0.41812682 0.35328346
1.1787926 0.68181092 0.35381868
1.162593 0.74369347 0.34156227
1.2101418 0.70267683 0.30869272
1.1570003 0.85154587 0.34184167
0.98931915 0.96234149 0.30447057
1.0726757 0.94944471 0.32863063
1.1141698 0.91621524 0.34450561
1.0063189 1.0154604 0.31537068
17.096138 2.4250548 0.35868287
17.059162 2.6337528 0.35855827
17.038733 2.7377419 0.35847518
17.027531 2.843226 0.35859978
17.045227 2.9537971 0.35934743
17.044495 3.0615106 0.35972127
17.041117 3.1689606 0.36005354
-6.8841271 3.254847 0.33113796
-6.7333355 3.2597528 0.32531631
17.038042 3.2766731 0.36040661
-6.7299514 3.334877 0.32661968
17.031343 3.3838825 0.36069736
-6.7822266 3.4389603 0.3306818
4.973464 5.4551277 0.32101527
-4.210063 6.3834562 0.3325282
-4.1335702 6.4380026 0.33270198
-4.0579386 6.4499254 0.33137691
-3.9986413 6.4874825 0.33139864
3.4433155 8.3886929 0.39432874
3.3434114 8.4386806 0.39471975
-1.4840084 8.5459099 0.3771897
-1.4424262 8.6198883 0.38005707
-1.3589935 8.6070976 0.37892747
-1.2851318 8.6558485 0.38053495
-1.1767957 8.6561184 0.37988326
-0.75004172 8.6964664 0.37957916
-2.0310643 8.7867918 0.39217821
-1.9738261 8.7844677 0.39152655
-1.5673862 8.7087135 0.38479257
-1.2447959 8.7535801 0.38448843
-1.1285439 8.7008247 0.38153419
-1.0854191 8.7908735 0.38518357
-0.92206997 8.7964468 0.38461879
-0.80881327 8.7503948 0.38214242
-1.8522692 8.8782244 0.39439392
-1.0320406 8.80233 0.3854008
-0.97801101 8.8084965 0.3854008
0.70718503 8.8614254 0.38657382
0.8415153 8.83358 0.38587868
0.95050436 8.8285475 0.38613936
1.0603822 8.8296089 0.38672584
1.1461444 8.8546925 0.38826817
-1.6714821 8.9709892 0.39682683
0.76710749 8.9216194 0.38939774
1.2428763 8.9540672 0.39311227
1.3332489 8.9961472 0.39548004
-1.7372696 9.0164814 0.3993032
1.3974221 9.0460501 0.3980433
6.0180225 14.03053 0.31712624
8.7366762 14.171804 0.34582752
6.5736113 14.579071 0.33220375
6.6779385 14.571181 0.3329514
-0.26687834 14.670408 0.30479011
-0.086900756 14.684576 0.30503932
6.4933548 14.640152 0.33268142
-0.35900488 14.75545 0.3065969
0.048328176 14.748671 0.30636847
0.27456433 14.739264 0.30622309
-0.45328125 14.875886 0.30915135
-0.17927958 14.872711 0.30896446
0.18544437 14.84664 0.30842447
-8.6112204 14.993343 0.35916054
10.705365 14.997119 0.3827529
11.120195 14.987013 0.38765413
11.53274 14.959527 0.39236844
-1.3866297 15.059033 0.31413567
0.37274557 15.050138 0.31272346
0.46520802 15.051564 0.31280652
10.495404 15.091247 0.3818391
10.601625 15.046178 0.38233754
11.28883 15.020801 0.3903124
11.421961 15.005347 0.39172465
-1.7686639 15.130693 0.31644091
-1.6761203 15.144242 0.3165032
-1.579114 15.115461 0.31569326
10.406569 15.161131 0.38198447
-8.6298962 15.241651 0.36383331
-2.0686331 15.256071 0.31980529
-1.8731989 15.214816 0.31843463
10.224736 15.295175 0.38217139
10.311665 15.222216 0.38192219
10.145008 15.379323 0.38271135
-8.6151485 15.435743 0.36719772
4.5995522 15.492138 0.33569276
4.7003322 15.482758 0.33610812
4.807096 15.49182 0.33693886
4.3117452 15.567431 0.33554739
4.4080024 15.543568 0.3356097
4.5052438 15.522949 0.33575508
4.9201903 15.519216 0.33818492
5.0322614 15.541047 0.33932716
5.1422744 15.554492 0.34030324
5.5810938 15.58739 0.34391686
5.6920567 15.595116 0.34485143
5.7897305 15.565518 0.34497604
5.8907986 15.544659 0.34530833
9.9965744 15.566595 0.38428971
10.095173 15.509992 0.38441432
-8.6118326 15.654752 0.37114361
-7.8536563 15.611014 0.3630026
-7.7586088 15.660702 0.36304414
5.2647872 15.603168 0.34206852
5.3731198 15.607439 0.34287846
5.4817028 15.610966 0.34368843
-8.5804195 15.826833 0.37396806
-8.4953957 15.902111 0.37450802
10.002968 16.005182 0.39205691
-4.8640904 16.786728 0.36304414
-4.6385412 16.775772 0.36154884
-4.4137416 16.760853 0.36003277
-4.3118105 16.791492 0.36011586
-4.2196212 16.861279 0.3610504
-4.1293416 16.941248 0.3622134
-4.0375462 17.017822 0.36331412
-3.9476645 17.105598 0.36466402
-3.8577321 17.19681 0.366097
-3.7723627 17.31296 0.36806998
-3.6790931 17.397404 0.36937836
-3.5881424 17.497023 0.37101901
-3.4497521 17.6465 0.37350076
-3.2260661 17.960634 0.37905622
4.9444513 18.287271 0.39351067
4.8380151 18.3395 0.39398834
15.673496 -11.629559 0.40541071
15.782467 -11.560937 0.40638679
15.911437 -11.506061 0.40788209
16.012659 -11.430286 0.40867126
16.088215 -11.335851 0.40881664
16.166496 -11.2432 0.4090451
16.192314 -11.114372 0.40796515
16.210543 -10.981166 0.40671909
16.218603 -10.842043 0.40524456
16.218893 -10.698833 0.40360388
16.240662 -10.570753 0.40252396
16.241282 -10.429845 0.4009456
18.798756 -4.2257099 0.4002395
20.986036 -0.51975954 0.43606415
20.98983 -0.39100048 0.43608493
21.002832 -0.26233929 0.43631339
21.014044 -0.13352692 0.43652105
21.019466 -0.0045857537 0.43662488
21.019098 0.12438735 0.43662488
21.028936 0.25348833 0.43685335
21.030983 0.38258743 0.43693641
21.030239 0.51167256 0.43697795
21.030701 0.64082384 0.43706101
21.040361 0.77036589 0.43735176
21.05022 0.90009326 0.43766329
21.055286 1.0297753 0.43789175
21.062548 1.1597183 0.4381825
21.078985 1.2903999 0.43868092
21.081642 1.4204532 0.43890938
21.078571 1.6803216 0.43924165
21.081808 1.8108234 0.4395324
22.398514 4.8804665 0.4761878
22.289202 5.1439466 0.47517017
22.248463 5.2785368 0.47498325
22.239941 5.4208703 0.47550246
22.236326 5.5647545 0.47614625
22.215319 5.7045703 0.476437
22.338129 6.4726548 0.48310351
22.354549 6.6263609 0.48432884
22.405128 7.0925331 0.48817089
22.374506 7.2341809 0.48846164
22.346785 7.3769736 0.48883545
22.310574 7.5171442 0.48904315
-1.9729346 9.0394564 0.40234435
-1.7989972 9.0379868 0.4007369
-0.74116063 9.2566004 0.40382147
10.075911 16.570944 0.40285626
10.031631 16.728489 0.40518224
10.070333 17.516163 0.41969904
10.076012 18.034674 0.42912766
10.171093 18.470116 0.43799558
10.171547 18.742191 0.4429591
10.173756 19.023775 0.44813034
10.220893 19.397186 0.45544064
10.225592 19.698233 0.4610272
10.137762 19.825586 0.46254328
4.809155 20.230766 0.43195212
4.9346213 20.206703 0.43207672
