# .PCD v0.7 - Point Cloud Data file format
VERSION 0.7
FIELDS x y z
SIZE 4 4 4
TYPE F F F
COUNT 1 1 1
WIDTH 236
HEIGHT 1
VIEWPOINT 0 0 0 1 0 0 0
POINTS 236
DATA ascii
18.80921 -4.2177153 -0.54516965
18.869896 -4.1098828 -0.5461874
1.197086 9.3120747 -0.51833522
18.807034 -4.3420539 0.83935785
18.856716 -4.2318249 0.84040052
-8.711504 16.785128 0.82237083
-8.6388178 16.897863 0.82528162
1.466522 9.0314817 1.5492109
1.4473889 8.9887648 1.7697535
1.5596189 8.9819288 1.7720432
1.366219 9.0124245 1.7718524
1.5554343 8.8790655 1.9885155
1.6147692 8.8962574 1.9945471
1.3964101 8.936101 1.9951934
1.4471408 8.9023037 1.9895926
1.5030379 8.90096 1.9913158
-6.5559654 15.083312 1.961125
-6.4617314 15.119602 1.9606515
1.3557477 9.0391417 2.0163043
1.5607157 8.8961277 2.2268405
1.4796368 8.9154282 2.228157
1.7301779 8.757 2.436944
1.8086129 8.7303438 2.434047
1.5591222 8.8909874 2.4643342
1.6342547 8.8406544 2.454458
1.3755138 8.9729233 2.4782929
1.4520681 8.922781 2.4680214
1.5053427 8.9051428 2.465651
1.1907502 9.0625973 2.4954116
1.2988497 9.0262957 2.4896176
-1.2091681 11.066489 2.4557552
1.6694794 8.7737627 2.6811957
1.7712927 8.7244587 2.6725698
1.3514847 8.8690319 2.6932719
1.4598341 8.8494158 2.692553
1.568027 8.8294277 2.6921217
4.9484167 6.1407914 2.8066888
1.6558573 8.6595173 2.8850679
1.790694 8.6438475 2.8886445
-1.9436572 11.539046 2.8850181
4.9573584 6.092217 3.0118499
5.0640469 6.0696387 3.031184
2.5284631 8.0597076 3.0061848
2.3624105 8.1383457 3.015908
2.463347 8.1127949 3.017417
1.8474557 8.459568 3.0816243
-1.2015738 10.923594 3.2990928
3.9032147 6.864274 3.4893203
3.9018447 7.06217 3.5653069
1.981266 8.3431234 3.5501885
2.0300124 8.3209362 3.5459807
1.8698618 8.4487343 3.5825114
2.3432987 8.2192373 3.776695
-0.73540163 10.443876 3.7260463
-0.63989329 10.460024 3.7295666
-0.93586087 10.522411 3.7595749
-0.83760899 10.513154 3.7533722
3.2211628 7.4499102 3.8539822
2.0603523 8.3860798 3.815901
3.9302387 6.8169007 3.9644442
3.6862617 6.9751029 3.974793
2.5539527 7.9749508 3.9762287
2.6031189 7.9599886 3.9766579
2.3126025 8.0651703 3.9839497
-0.5485993 10.290695 3.9517102
-0.45291707 10.274273 3.9436541
-0.64786768 10.358782 3.9799955
4.0121136 6.8612695 4.0044889
-0.83646339 10.462647 4.3454523
-0.94342691 10.574554 4.3953714
4.9777775 5.9789557 4.4285588
5.0491834 5.9523878 4.4431524
6.5883698 4.8769169 4.6660147
6.6635575 4.8382325 4.6875343
6.4602861 4.9687505 4.6393008
6.5213323 4.9208221 4.6504316
6.3940492 5.0438862 4.635838
6.873673 4.4844174 4.9802237
6.7108378 4.6168671 4.942872
6.4367929 4.9105163 4.9127831
6.5316749 4.9197922 4.9620667
6.939878 4.4671445 5.0082374
7.0104585 4.4519763 5.0393639
3.609827 6.950881 5.0051413
5.3569269 5.6205721 5.2787561
-1.5351205 11.053717 5.2990646
5.1732988 5.8442607 5.3063054
5.2434888 5.8148685 5.3231721
5.1518402 5.9291263 5.3400393
5.7395034 5.49228 5.4007597
-2.9278917 12.085437 5.4948812
5.4282417 5.4986267 5.513381
5.4040618 5.5417376 5.5232553
5.1787171 5.752831 5.5232553
5.2708197 5.7123923 5.5461988
5.0763917 5.8885841 5.5476508
5.1354141 5.8474298 5.5531693
4.8539214 5.9928241 5.5029259
2.3434696 7.8842187 5.591917
2.4188731 7.8718352 5.5986638
6.152976 4.9898648 5.6527839
6.2558861 4.9473081 5.6911197
6.0155039 5.1922145 5.6702094
5.8644242 5.3513489 5.6649818
5.9322519 5.3140097 5.6829877
5.4552298 5.6633177 5.6109629
5.3886666 5.7333941 5.6144481
5.4259887 5.7025809 5.6167717
2.4705968 7.8678913 5.606535
6.0831785 5.1858358 5.7038984
6.1148839 5.1484122 5.7038984
6.0245991 5.2649159 5.709126
6.9187832 4.5041704 5.8909302
2.8471661 7.6668038 5.8357501
2.4381988 7.8721399 5.880475
-1.2456614 10.697454 5.8037553
6.9668369 4.4748302 5.9083557
6.0857315 4.9652257 5.957397
6.0981474 5.0379953 5.9996996
4.7666836 6.1881948 5.9247637
2.4141643 7.9671926 5.9403024
2.1199 8.0530138 5.9420447
6.0756755 5.0824752 6.0081601
4.4685798 6.197691 6.0711212
4.3653426 6.2956214 6.0872955
6.6929832 4.6850085 6.1967082
6.7078385 4.6343427 6.1840177
6.5738363 4.7534571 6.1531973
6.6556621 4.7199965 6.1888523
6.5169911 4.8043561 6.1411109
4.3287196 6.3672581 6.1177788
4.2753835 6.4577241 6.153861
-1.1080183 10.67821 6.1110349
-1.3132513 10.728467 6.1525898
-1.2461944 10.725964 6.1466532
-1.1776026 10.708356 6.1323071
6.7840343 4.5650225 6.202147
6.8493614 4.517911 6.2236004
6.7578712 4.6079092 6.2039599
6.2536135 4.8613858 6.2938347
5.9752364 5.0397539 6.2110944
3.0497773 7.2606621 6.2575455
-1.5369813 10.890073 6.2604346
6.6540685 4.51685 6.3902607
2.7796078 7.5049462 6.3591557
-1.6169527 10.969853 6.3118834
6.9031777 4.3827915 6.497263
6.710279 4.4951091 6.4176335
6.8395185 4.4312181 6.4754891
5.2690043 5.5668879 6.4705734
5.2462282 5.611393 6.4847651
2.7543714 7.6520624 6.4621139
-0.95570755 10.559406 6.4338264
-1.1269956 10.632824 6.4882975
-1.0584219 10.606362 6.4680653
7.0352192 4.2573881 6.533967
6.9574862 4.3279381 6.5106382
-1.2392433 10.74636 6.5642977
6.2685003 4.8598285 6.6956987
6.0565119 5.0317235 6.646997
6.0452976 5.1170998 6.6860228
5.8020344 5.2898088 6.6279678
5.8065267 5.3595161 6.6705413
5.7258873 5.4167142 6.65377
3.0487206 7.2942352 6.6737666
3.1011937 7.2936745 6.6905384
2.8798842 7.3953395 6.6995692
2.9555843 7.3227482 6.6662407
-0.8585366 10.39011 6.6623034
-1.5663753 10.924333 6.6968441
-1.4270954 10.903738 6.6729808
-3.8808503 12.580468 6.6330538
-3.8084872 12.620289 6.6416025
6.3048759 4.8263836 6.7027946
6.189888 4.9839725 6.7086
6.2552681 4.9423828 6.729887
6.155045 5.0184789 6.7040844
5.6439619 5.2341208 6.7933898
5.3706784 5.4612484 6.759974
3.158324 7.3032646 6.7169857
2.8225021 7.4500837 6.7253714
2.7654595 7.5073266 6.7537541
-1.7492852 10.996481 6.7567625
-1.6379313 10.944954 6.7155204
-1.5005929 10.943055 6.7025509
5.9779611 4.9902134 6.8724637
6.0240879 4.9663167 6.8903298
5.9397855 5.0205073 6.8638616
5.7418809 5.1633105 6.8151155
5.8148055 5.1012993 6.8268061
5.4363279 5.5962801 6.8856978
5.392024 5.6192527 6.8731256
-1.3115689 10.668402 6.8688092
6.0933437 4.8990645 6.9002552
6.0660763 4.9387274 6.903564
-1.4510946 10.7158 6.9102721
-1.5347841 10.833509 6.9921203
-1.3951398 10.80055 6.9592733
2.6379626 7.5716062 7.0762687
-1.7480881 10.891615 7.0491991
-1.6422521 10.870101 7.0252366
4.2605729 6.3581715 7.177269
4.3277788 6.3316679 7.1919761
4.0945196 6.4909897 7.1967645
4.1416054 6.4336953 7.1752172
4.2056947 6.4029388 7.1837678
2.557461 7.6410909 7.1113391
2.6047823 7.6266737 7.1126623
2.7084689 7.6231012 7.1397924
2.8137569 7.621645 7.1702309
3.9887025 6.5889692 7.2227578
4.0372663 6.5327148 7.2015524
3.8839569 6.6909223 7.2549076
3.9313722 6.6313505 7.2292562
3.8409171 6.7593412 7.2904778
5.432477 5.5869484 7.3075786
-1.7405674 10.854357 7.4736934
-1.6405931 10.869969 7.4736934
-1.5045841 10.871262 7.4613242
-3.8761432 12.541891 7.4724507
-3.7550619 12.558655 7.4615674
2.7137048 7.6262331 7.5907702
-3.983645 12.614833 7.5303307
6.0177398 5.037693 7.6934109
2.6518238 7.675333 7.6150537
2.566237 7.624814 7.8866215
-3.7144983 12.462272 7.8910604
-3.6362872 12.479083 7.8874288
5.3362913 5.46347 7.9611263
5.2684813 5.5622597 7.9863834
5.3108387 5.5045791 7.9733939
2.6444707 7.6245346 7.9111223
2.5315945 7.7574568 7.9993272
-3.7973752 12.460507 7.9045486
5.7416396 5.1349707 8.0296822
2.4898171 7.7912102 8.0182285
