# .PCD v0.7 - Point Cloud Data file format
VERSION 0.7
FIELDS x y z
SIZE 4 4 4
TYPE F F F
COUNT 1 1 1
WIDTH 269
HEIGHT 1
VIEWPOINT 0 0 0 1 0 0 0
POINTS 269
DATA ascii
-4.0863833 -10.088323 -1.3827554
-4.1017046 -9.9502487 -1.3672543
-4.1413584 -9.7066383 -1.3406628
-4.0909305 -9.7538223 -1.3436874
-4.1929417 -9.6628437 -1.3381423
-3.8448782 -8.7139015 -1.2099741
-4.2041998 -8.6512413 -1.2219465
-4.0516534 -8.6043539 -1.2082096
-3.9683223 -8.6326828 -1.2070124
-3.8929951 -8.6783791 -1.2083356
-4.1086535 -8.5882807 -1.2094699
-2.1165488 -7.6729655 -1.2364687
-2.0298641 -7.538866 -1.2128292
-1.9591511 -7.5524092 -1.2120618
-1.869379 -7.5883594 -1.2140572
8.8945847 -7.3736973 -1.2122908
8.8934898 -7.2811809 -1.2060294
8.9256248 -7.2164698 -1.2043598
8.9565229 -7.1510186 -1.2025857
8.9963274 -7.0928488 -1.2020639
9.056159 -7.0503449 -1.2042553
9.1252689 -7.0146465 -1.2076991
-3.9376235 -6.7215834 -1.2101429
0.72140485 -6.7347107 -1.2016195
-4.0056949 -6.6956801 -1.2120618
2.0479751 -6.6934018 -1.2417958
2.072227 -6.5564179 -1.2198734
2.1510072 -6.5258126 -1.2190001
2.2381299 -6.5198755 -1.2229304
2.3494921 -6.5168157 -1.2289859
2.4654555 -6.5232124 -1.2371666
2.5593381 -6.5282164 -1.2439792
2.6275723 -6.5249772 -1.2479095
0.75859165 -6.5150356 -1.1636267
0.84339142 -6.5428252 -1.1703519
0.94667912 -6.5505157 -1.1741948
1.0497215 -6.5517998 -1.1771643
1.1543847 -6.559113 -1.1815314
19.365141 -6.2443905 -1.1233261
19.404043 -6.1257515 -1.1233813
3.928673 -5.3387747 -1.1759416
3.8972178 -5.2285185 -1.1569016
3.9298191 -5.2052932 -1.1570762
3.9688611 -5.1904683 -1.1591724
4.0215988 -5.1602907 -1.1606572
4.1208715 -5.1559448 -1.1709633
1.2768203 -4.9638114 -1.171054
1.3482069 -4.9261622 -1.1669334
-4.0158658 -4.856235 -1.1179481
-3.9498699 -4.8365521 -1.1078167
1.2150787 -5.1016011 -1.0831803
1.1738056 -5.0660281 -1.074078
1.2545533 -5.060235 -1.0768087
1.3399314 -5.0288777 -1.0749545
-3.6633608 -4.9643254 -1.0945411
1.3505158 -4.9863062 -1.0669982
-3.884886 -4.8170109 -1.09786
-3.6419501 -4.8414946 -1.0748023
-3.8166118 -4.7922344 -1.0868552
-3.7284141 -4.7708545 -1.0741909
-3.6672442 -4.7827554 -1.0692126
-18.254356 -4.2362733 -1.0345757
18.834036 -4.0883021 -1.0640122
-18.217188 -3.9927065 -1.0296146
-4.6624055 -3.9422183 -1.0831869
18.854858 -3.9718382 -1.0637916
-18.226694 -3.8777361 -1.0287876
-18.262856 -3.7684493 -1.0295043
0.15540199 -3.0197868 -1.0152897
-0.0071051014 -2.8567839 -1.0539265
0.045429058 -2.8525708 -1.052542
-18.026838 -2.0174544 -1.0014459
-18.088526 -1.9120537 -1.0042021
-18.087 -1.7997434 -1.0034856
-18.126534 -1.69142 -1.0050842
-4.7026024 -3.9144554 -0.95049214
-4.6792512 -3.9438732 -0.95064569
-17.40053 -3.4793377 -0.97967178
-17.382341 -3.3649142 -0.97746676
-17.482645 -3.0516028 -0.97978204
0.14436853 -3.0055835 -0.94182533
-17.753109 -2.9866805 -0.99389386
0.077835485 -2.9316545 -0.9179287
0.14648265 -2.9803264 -0.94517279
-17.656765 -2.859179 -0.98749942
-0.011522437 -2.8862314 -0.93630302
0.050686371 -2.8799784 -0.95620638
-17.693708 -2.7538564 -0.98860192
-17.692497 -2.6425829 -0.98760968
-17.733089 -2.5375102 -0.9889878
-17.721615 -2.4249992 -0.98749942
-17.835169 -2.3291454 -0.99301189
-17.900648 -2.2260742 -0.99587834
-17.967516 -2.1225214 -0.99885505
2.0887675 -1.9801674 -0.93360734
2.128969 -1.968544 -0.9735927
2.2099271 -1.9814622 -0.99658972
1.6923399 -1.8084936 -0.9137491
1.9588467 -1.8909345 -0.9141506
1.6969525 -1.7912647 -0.91028792
1.7476825 -1.7557015 -0.94520175
1.8363197 -1.7787603 -0.943169
5.6521068 -1.7473563 -0.91902399
5.959425 -1.6635668 -0.96116066
5.6854091 -1.3084327 -0.9062832
5.6769366 -1.2698561 -0.90367365
5.7087622 -1.2402438 -0.90751123
5.6766224 -1.196834 -0.90121764
5.7359815 -0.88198733 -0.9015246
2.0427508 -1.9731456 -0.8889541
1.6995262 -1.8099303 -0.83362132
1.7193328 -1.8536866 -0.8488996
1.7440048 -1.7681803 -0.83393961
5.5809174 -1.5026801 -0.89784056
5.5882568 -1.4496739 -0.89684278
5.5907297 -1.322816 -0.89246792
2.2916965 -1.1033194 -0.8539924
5.5328317 -1.1311051 -0.87727112
2.3291795 -1.05165 -0.85813028
5.469862 -1.0485837 -0.86519551
5.4626274 -0.97774601 -0.86207432
5.7138743 -0.9145112 -0.89891505
2.4119177 -0.84017706 -0.85757321
2.4129882 -0.78281564 -0.85176438
-2.3620517 0.38192111 -0.80338305
-2.4346561 0.42447042 -0.8298018
1.1965747 0.75949794 -0.83673406
1.2151955 0.7597003 -0.8415947
1.2362055 0.82860851 -0.84323585
1.1587086 1.0900543 -0.81724203
1.1448648 1.1387113 -0.82957953
2.2895038 -1.1031713 -0.79545856
2.3139796 -1.0355248 -0.75781608
2.3713944 -0.84453106 -0.74806017
2.3866625 -0.78669167 -0.7600835
-2.2662764 0.18990952 -0.76359588
-2.2593527 0.2610634 -0.74801958
-2.3268809 0.36159781 -0.79065114
-2.2702 0.3447693 -0.73446572
-2.460587 0.47105417 -0.70467496
-2.2637489 0.42404833 -0.72088122
1.2291858 0.74606884 -0.74400359
1.1956183 0.80987251 -0.7418465
1.2048895 0.80005312 -0.74298888
1.1474415 0.98944426 -0.74029785
1.1197728 1.0515083 -0.7401495
1.1259375 1.1256324 -0.77790546
4.6260433 1.2690092 -0.74518156
4.7617245 1.2436399 -0.76452297
4.4140582 1.3726343 -0.71808821
4.5937419 1.3057721 -0.74188125
4.6374245 1.3644896 -0.75093794
4.3966832 1.4415754 -0.71877897
4.4100895 1.446116 -0.72100478
4.6284862 1.4082272 -0.75155193
4.4258556 1.541935 -0.72806597
4.4679184 1.6183439 -0.73819715
4.5139775 1.6821531 -0.74832839
4.462163 1.8848054 -0.75247294
4.5694685 1.8971756 -0.76859081
4.4555759 1.9467098 -0.75533837
4.5055208 2.0348234 -0.76797682
4.9643168 2.5285966 -0.70776105
1.1900699 0.78509021 -0.65979773
1.2035589 0.80711061 -0.65430784
1.1159875 0.96352816 -0.66574794
1.0884179 1.0212097 -0.65591383
1.1052426 1.0688592 -0.69422472
4.7380652 1.2418628 -0.62225252
4.7114296 1.7604185 -0.63895094
4.7352934 1.8191611 -0.64443314
4.4129729 1.9976647 -0.61538416
4.412365 2.0465622 -0.61790466
4.7687988 2.0538309 -0.65961921
4.8108058 2.0196257 -0.66283286
4.4235787 2.1348717 -0.6239959
4.7988153 2.1017582 -0.66554242
4.8075786 2.1408489 -0.66856706
4.4563437 2.2184229 -0.63239765
-8.4200554 2.4342051 -0.67749655
-8.3456831 2.468292 -0.67271841
4.7188935 2.4954617 -0.67814499
-8.3695087 2.5312877 -0.67587817
4.8801603 2.5425487 -0.69906527
-8.5380449 2.6682825 -0.69144571
-8.5549173 2.7602262 -0.69483668
21.062849 0.91168213 -0.59625453
21.063848 1.0412496 -0.59645247
21.085009 1.1720288 -0.59724402
21.112339 1.303538 -0.59823352
21.122892 1.434343 -0.59877062
21.112698 1.5638498 -0.59874237
21.121635 1.6948845 -0.59927952
21.098886 1.8234198 -0.59894025
4.7453175 2.4690597 -0.56129014
4.914084 2.4808023 -0.57760429
-6.8200102 3.2700257 -0.58463079
-6.8083706 3.3419027 -0.58624917
-6.8406305 3.4361792 -0.59172094
-17.735689 4.5526166 -0.51786029
-4.8823452 4.5839753 -0.51765949
-17.72192 4.6651721 -0.51828432
-4.8341398 4.6232042 -0.51704293
-5.1699433 5.0362258 -0.55788851
-17.601007 5.6891055 -0.52314687
-17.479225 6.6134567 -0.52854657
-17.421526 6.7141123 -0.52803767
-17.000868 6.7927642 -0.51777548
-16.586634 6.7455692 -0.50641066
-6.432467 6.7426686 -0.51447654
-6.3848104 6.7754707 -0.51398039
-17.340919 6.8055449 -0.52685028
-6.3451581 6.8167119 -0.51414579
-6.2723641 6.8640928 -0.51334643
-6.2086086 6.9212017 -0.5133189
-6.1415238 6.9315157 -0.51127928
-6.0969048 6.9668145 -0.51111394
17.02598 3.0673881 -0.48927873
17.024527 3.1750987 -0.48978761
17.022392 3.2829068 -0.49029645
-16.349527 5.5070882 -0.48792174
-16.328663 5.6118522 -0.48831752
-16.306185 5.7162361 -0.48868504
-16.273628 5.8171906 -0.48876986
-16.248898 5.921041 -0.4891091
-16.235687 6.0293307 -0.48981586
0.79509205 6.1764584 -0.48136088
0.85185856 6.1683526 -0.48132235
0.9327538 6.1924353 -0.48405826
1.0499804 6.1943712 -0.48563811
0.57484323 6.2849402 -0.48783451
0.65096647 6.2684116 -0.48714092
0.74609035 6.2503214 -0.48656291
0.53762424 6.304244 -0.48906758
-3.5127723 6.4605598 -0.40599158
-3.4560888 6.4503083 -0.40400711
-3.3656158 6.470974 -0.40268412
-3.3340423 6.5074987 -0.40367636
-16.084967 6.6568561 -0.49233195
-15.762832 6.637114 -0.48370942
-3.1876364 6.6170454 -0.40549546
-15.704352 6.7262306 -0.48317227
-15.651788 6.8176737 -0.48283303
-15.605091 6.9115591 -0.48269168
-15.572414 7.0116944 -0.48300266
-15.540915 7.1125207 -0.48337018
0.5742197 6.2902265 -0.34871727
0.61270809 6.2855906 -0.34866217
0.67613959 6.3322768 -0.35158375
0.75281978 6.3150721 -0.3511152
6.873457 8.4862146 -0.30885595
6.9579344 8.4306355 -0.30915278
7.1044102 8.4485359 -0.31219187
6.7657027 8.5660009 -0.3087146
6.8156381 8.521204 -0.30860153
6.732687 8.632576 -0.30961928
6.7088671 8.7117395 -0.31097624
3.3577511 8.4791775 -0.25792652
3.4332247 8.4419327 -0.25774276
3.283725 8.5204868 -0.25825164
0.65014195 8.850605 -0.2509861
0.70427734 8.8444567 -0.25092956
1.5312405 8.840786 -0.25375661
1.3824275 8.9593487 -0.25638577
-1.4018364 9.4305677 -0.26964468
-1.3416907 9.4231577 -0.26919234
-7.9655519 24.129744 0.52783763
-7.8121157 24.161993 0.5274846
-26.593645 32.418869 0.87100685
