# .PCD v0.7 - Point Cloud Data file format
VERSION 0.7
FIELDS x y z
SIZE 4 4 4
TYPE F F F
COUNT 1 1 1
WIDTH 348
HEIGHT 1
VIEWPOINT 0 0 0 1 0 0 0
POINTS 348
DATA ascii
-9.4541912 25.937757 0.57346475
-9.6146441 26.889622 0.59319431
-9.4534407 26.959433 0.59344351
-9.2719164 26.970602 0.59242588
-8.802083 20.879055 0.98533309
-8.8956232 21.467985 1.0105312
-8.7714081 21.92523 1.0269099
-8.5160713 22.478157 1.0452873
-8.4396219 22.695732 1.052977
-15.745989 6.5358901 1.1891627
-15.724888 6.6405325 1.1906239
-15.695762 6.742012 1.1915284
-15.670553 6.8453803 1.192781
-15.652871 6.9523373 1.1946597
-15.631739 7.0581031 1.1963297
-15.609897 7.1638713 1.1979996
-15.584632 7.2683716 1.1994609
-18.361856 -0.88840759 1.2822639
-18.547361 -0.78334379 1.2948583
-15.554164 7.3706951 1.2005742
-15.526623 7.474649 1.2019658
-18.688398 -0.67445362 1.304391
-18.675234 -0.55926347 1.3032082
-16.931246 -2.181052 1.5896529
-16.943321 -2.0770016 1.5895602
-16.892448 -1.9656347 1.5836263
-8.042675 15.073671 1.590951
-7.9365973 15.097178 1.5882621
-7.6968908 15.087888 1.5772287
-7.5742183 15.075221 1.5710166
-7.9005928 15.255227 1.5997592
-16.979425 -3.9091835 1.6224751
-16.963255 -3.7960112 1.6186737
-16.928671 -3.5707095 1.6110708
-16.921972 -3.460984 1.608382
-16.899595 -3.1334896 1.6005009
-17.048857 -3.0530803 1.6128324
-17.032928 -2.9424806 1.6095873
-17.03986 -2.8361149 1.6085674
-17.04121 -2.7289877 1.6070839
-17.092077 -2.6296728 1.610329
-17.160097 -2.5324528 1.6152431
-17.104328 -2.4170816 1.6085674
-17.086275 -2.307688 1.6055077
-17.148649 -1.8888739 1.6065276
-17.258953 -1.79391 1.6157994
-8.3701591 15.015265 1.6007791
-8.2749929 15.061105 1.6002228
-8.2004395 15.144868 1.6037461
-7.1462636 15.632665 1.6005937
-6.9681325 16.016291 1.626462
-6.6591005 16.251556 1.6354556
-6.5226383 16.345495 1.6387935
-6.3365841 16.463335 1.6426877
-15.361991 -4.8482232 1.9208677
-15.436989 -4.7679381 1.9265511
-5.6557794 14.983648 1.9097377
-5.5558009 14.996654 1.9070145
-6.0115151 15.079928 1.9357866
-5.9029436 15.075848 1.9305768
-5.4704633 15.049126 1.9093826
-5.3803554 15.088956 1.9102113
-5.2437291 15.296619 1.9282088
-5.1750703 15.403808 1.9376811
-5.0972209 15.486203 1.9440749
-4.9938779 15.491671 1.940878
-4.8870735 15.485091 1.9362602
-4.7822967 15.483478 1.9323529
-4.6757135 15.474508 1.9276167
-14.08679 -5.8054366 2.1847084
-14.179965 -5.6412807 2.1882567
-14.057003 -5.6925125 2.1746306
-14.374253 -5.2137842 2.1925149
-14.228719 -5.2600107 2.1751986
-14.340805 -5.0527897 2.1802373
-14.431259 -4.9358244 2.1869793
-14.5894 -4.6917815 2.1974828
-16.363243 -10.196989 2.2990501
-14.217264 -7.2340007 2.2873294
-14.055184 -7.0432987 2.2542579
-14.208225 -6.9031658 2.2650452
-14.138083 -6.9766369 2.2606452
-14.274426 -6.8273878 2.2688775
-14.322318 -6.7426248 2.269871
-14.439764 -6.6899881 2.2819357
-14.401279 -6.5651283 2.2694452
-14.346673 -6.0157833 2.2306962
-14.232098 -6.0706878 2.2186315
-4.0531673 12.858429 2.2827489
-4.1594872 12.918722 2.2979405
-3.9971538 12.957487 2.2959373
-14.670705 -6.5795274 2.3054974
-3.8449905 13.178593 2.3244007
-3.741873 13.278492 2.3358362
-13.906874 -10.408049 2.4907265
-14.021427 -10.360169 2.4998105
-14.023862 -9.5845976 2.4356544
-14.157728 -9.4232998 2.4386351
-14.07338 -9.49228 2.4340932
-14.220246 -9.3395128 2.4394867
-3.8554137 12.046346 2.4585741
-3.7691002 12.030433 2.4505601
-3.65516 12.054707 2.4485564
-3.5484016 12.102481 2.451514
-2.1140823 11.457478 2.5701418
-0.16529028 15.258916 2.5837433
-0.071799122 15.289221 2.5887516
-0.35416818 15.326709 2.595763
-0.25970036 15.303947 2.5915895
-2.8397937 11.566588 2.6273351
-2.6455667 11.536982 2.6110709
-2.5753646 11.555857 2.6117172
-2.4996598 11.549489 2.6067626
-1.6537642 12.045134 2.6820509
-1.5353395 12.0013 2.6690183
-1.027058 10.98277 2.7196059
-1.2352072 11.017002 2.7332506
-1.1665623 11.014719 2.7308569
-1.0970286 11.002347 2.7260692
-1.1323572 10.380283 2.8506951
-1.0659779 10.361126 2.8435843
-1.3405919 10.493565 2.8880935
-1.2345257 10.425411 2.8661022
-0.65141284 11.531749 2.8476746
0.50334793 13.091349 2.8900361
0.74406517 13.076941 2.88939
0.82140136 13.026323 2.8792653
0.42320061 13.100046 2.8913286
0.22488645 14.54794 2.828171
-0.51805615 10.944757 2.9913337
-0.4496997 10.918814 2.9834325
-0.34911945 10.920993 2.9830375
-0.24925843 10.952246 2.9908068
-0.18235661 10.971896 2.995811
1.0573941 12.017266 2.9743071
0.95378393 12.115594 2.9963303
0.66757381 13.15538 2.9057615
1.8455389 13.425923 2.9895589
-0.1155163 11.019111 3.0084527
-0.047931485 11.026365 3.0102961
0.053505793 11.019053 3.0083208
0.88371181 12.180289 3.0109324
2.6390674 13.588299 3.0535378
2.8072014 13.562541 3.0552611
2.5832262 13.751076 3.0864966
3.1772606 14.042895 3.17611
2.8709116 10.589992 3.2939172
3.6018884 14.281681 3.2491364
3.5204804 14.329118 3.2549527
1.0507591 6.1433659 3.3587203
1.1447885 6.1258941 3.3584042
1.2449155 6.1388717 3.3755615
1.3231966 6.1373358 3.383389
1.7588121 8.4824972 3.3219142
1.8292851 8.4312344 3.3083086
1.6720631 8.5932608 3.3570023
1.724023 8.5791779 3.3555701
1.5486503 8.6661148 3.3757997
1.6243129 8.6299686 3.3673856
2.7548289 9.8858376 3.3582668
2.7170727 9.9869251 3.3868797
2.825604 9.9043913 3.3703961
2.663059 10.030967 3.39621
4.9284439 14.539307 3.3865726
5.0233078 14.525404 3.39045
4.8569927 14.623024 3.3990667
1.6290668 5.8657765 3.4653769
2.5725567 10.192823 3.440062
2.6157539 10.102322 3.4148705
5.0254898 13.075007 3.4535477
5.1077456 13.04935 3.4549839
4.7793279 13.152519 3.4501963
4.8599405 13.122946 3.4501963
4.9434547 13.101054 3.4523509
4.6265368 13.235842 3.4568989
4.7053814 13.200803 3.4552233
4.7744269 14.674837 3.4042368
-4.7391014 -7.9820518 3.5596542
2.1402965 5.4693818 3.5639725
2.2325025 5.4568529 3.5777199
2.1931174 5.5045924 3.5956175
1.5610591 5.974977 3.5153418
1.6128296 5.9486361 3.5084157
1.4590669 6.0369148 3.535377
1.5100554 6.0051284 3.5247409
1.764787 6.064805 3.5954831
1.3446177 6.137394 3.5765197
2.3393087 8.1605024 3.5146139
2.4399314 8.1333961 3.5155702
2.2746899 8.2200212 3.5310624
4.7594576 9.8600922 3.5828149
4.659842 9.9642448 3.5996094
4.7115121 9.9157209 3.5924561
-4.4036579 -8.5749178 3.6964262
2.2996941 5.4766917 3.6044369
2.3560798 5.4694009 3.6137748
2.4521215 5.4600997 3.6321049
2.5510201 5.4549456 3.6542392
3.2970023 5.9809108 3.6803606
3.341373 5.9743977 3.6888998
1.804446 6.0621915 3.60043
2.9936967 6.0294418 3.6277027
3.051641 6.0526199 3.6528456
3.2283449 6.0302324 3.6860533
3.1264284 6.1074409 3.697439
3.8702579 6.7343845 3.6881988
2.8679488 7.2345033 3.6952763
4.0439911 7.7945728 3.6354909
4.2136507 7.7683578 3.6588247
4.1584101 7.8377881 3.6733606
4.0482259 7.9212584 3.6829238
3.3953311 8.0571146 3.6198075
3.4461608 8.0395269 3.6213377
4.5701437 10.093405 3.6257339
4.606164 10.009053 3.6055183
5.5748219 10.884201 3.6711535
5.6459198 10.858287 3.6740289
5.724062 10.845463 3.6815045
3.3923039 5.9790497 3.7045548
3.5783386 5.9611721 3.7467761
3.6445417 5.9467173 3.758636
3.7150042 5.9383283 3.7747653
3.478545 6.0443392 3.7581615
3.5654511 6.0655479 3.7916064
3.1743982 6.1084518 3.7097731
3.7572351 6.9766665 3.762619
3.8996313 6.9323072 3.7767739
4.8693609 7.0728922 3.7944791
4.0473175 8.0408573 3.7269137
4.0985084 8.7599478 3.7085996
6.2519088 12.271631 3.759973
6.3728652 12.229455 3.7648454
-1.8045875 -7.002079 3.8966849
-1.8561537 -6.9375324 3.8701189
4.6578336 6.655993 3.8575566
4.7511554 6.6150537 3.8672793
4.5746627 6.7110004 3.8565559
3.8846192 7.0058756 3.803797
7.0731974 10.851169 3.8885245
6.9461746 10.947663 3.8922622
7.0183983 10.912892 3.8951375
6.8875089 11.00388 3.8971503
8.5227966 13.313283 3.8973598
-3.9503822 -11.41648 3.9532256
-4.4627733 -11.301744 3.9762402
-4.2270379 -11.309863 3.9510486
-4.159853 -11.341832 3.9532256
-4.0535059 -11.374664 3.9515152
-3.8656049 -11.397303 3.9382973
-3.7785144 -11.369398 3.9205697
-4.3631034 -11.250937 3.9488716
-4.2970304 -11.28549 3.9516706
-1.9124646 -6.7258706 3.98036
-1.8769734 -6.7584128 3.9927275
-1.9554566 -6.6441889 3.9425154
-2.0476859 -6.5827737 3.9242938
5.7677016 6.0945773 3.9843786
5.6789956 6.1502962 3.974942
5.7234116 6.1225939 3.9796603
5.458962 6.2111411 3.9264724
5.6430502 6.2253675 3.9897404
4.6532297 6.3769093 3.9772675
5.3031502 6.3411613 3.9251854
4.5825381 6.44489 3.9842417
5.2235355 6.5669575 3.9843786
4.9059334 6.6566024 3.9264724
5.1484313 6.6380672 3.9889538
5.3370361 7.0807991 3.9181595
5.2492008 7.1450224 3.9177554
5.1946697 7.2557545 3.9432189
5.2262044 7.2059736 3.9335184
5.1347489 7.313324 3.9486756
7.3973126 12.291749 3.9165454
7.3173213 12.329441 3.914175
7.550983 12.374594 3.9576309
8.7105513 13.424451 3.9454753
8.5995941 13.616528 3.9706104
8.5394993 13.706945 3.9816217
-4.5667744 -11.360567 4.0067191
-1.7467672 -6.8577852 4.0283461
-1.8395627 -6.7849007 4.0016322
-1.7985635 -6.7985806 4.0031161
5.882937 6.0654883 4.0122595
5.0742164 6.7972097 4.0277009
7.8098707 9.4817152 4.0197816
7.7653389 9.5464144 4.0269346
8.3033667 10.487046 4.0156116
8.1594172 10.569199 4.0084233
8.3025742 10.619287 4.0466647
-3.0005684 -12.20377 4.112462
-2.9247458 -12.218254 4.111218
-2.8436849 -12.210052 4.1025095
-3.1527219 -12.176149 4.1158829
-3.0767882 -12.190658 4.1143279
6.4765906 5.2335944 4.1952648
6.3688974 5.3433108 4.1885157
6.4180679 5.3178062 4.1993141
6.9178247 5.4322538 4.1765413
6.5869741 5.6460934 4.119493
6.7515774 5.6448841 4.1788292
7.4962859 6.7943864 4.1886182
7.3940668 6.8688869 4.1782899
7.4544554 6.8402548 4.1886182
7.1410313 6.9253774 4.1184254
7.2817831 6.9329848 4.1626067
7.856607 9.7806025 4.1053085
8.3545294 10.960313 4.1372356
8.3118858 11.044275 4.1495996
-0.64535457 -7.4146285 4.2366147
6.4526496 5.2800221 4.200664
6.6286454 5.2895656 4.272655
7.1590953 5.3429704 4.2417397
6.3815155 5.454793 4.2296853
7.0124197 5.4373078 4.2134299
6.2499642 5.5789804 4.2209115
6.3231668 5.5406356 4.2357597
6.9285097 5.5444903 4.2136445
6.1403122 5.652679 4.2049384
6.2030258 5.6058474 4.2123628
6.8950715 5.6226063 4.2245822
6.0883665 5.709301 4.2051635
7.8268318 6.5858445 4.2349033
7.8200331 6.6625071 4.2532644
7.785006 6.7992983 4.2792759
7.8286781 6.7532129 4.2804232
7.6245713 6.8259134 4.2368159
7.7036872 6.8120518 4.257472
7.0844545 7.3503547 4.2264876
-0.28524998 -7.5563402 4.304389
7.2155871 4.8704686 4.3860402
7.1748438 4.9396744 4.3887401
6.8623433 5.1725101 4.3295727
6.9926224 5.1704917 4.3815413
7.0061831 5.114325 4.3702927
6.8053737 5.2618513 4.3340721
7.4575458 6.2544365 4.3009219
7.3871684 6.3514442 4.3049636
7.454587 6.3302722 4.3215351
7.6061959 7.1533961 4.3228831
7.7564044 6.2655473 4.4060097
0.67705256 -9.5876122 4.56387
0.73538417 -9.576972 4.5608673
8.7626753 5.6045704 4.5963802
8.4339066 5.8425679 4.5337319
8.3384657 5.9291935 4.5212021
8.4143686 5.9057679 4.542624
9.2259436 5.2067761 4.6812587
8.8464069 5.5819368 4.6222482
