# .PCD v0.7 - Point Cloud Data file format
VERSION 0.7
FIELDS x y z
SIZE 4 4 4
TYPE F F F
COUNT 1 1 1
WIDTH 230
HEIGHT 1
VIEWPOINT 0 0 0 1 0 0 0
POINTS 230
DATA ascii
29.406805 -8.7140074 -0.86742586
29.423235 -8.5228386 -0.86635154
29.426886 -8.3285294 -0.86493802
18.87159 -4.1137018 0.83992261
18.877905 -3.9939015 0.83909714
18.904917 -3.7578495 0.83818483
18.915846 -3.6395152 0.83766347
18.927999 -3.5215538 0.83722901
18.937452 -3.4032271 0.83670765
18.947149 -3.2850876 0.8362298
18.951183 -3.1661341 0.83553469
18.967295 -3.0493164 0.83540434
18.979723 -2.931963 0.83514369
18.99538 -2.8151574 0.83505678
19.016253 -2.6991124 0.83523053
19.028496 -2.5818429 0.83505678
19.032089 -2.4634986 0.83453542
19.032965 -2.3449633 0.83392721
19.040049 -2.2273223 0.83362311
18.981863 -2.1025338 0.83049506
19.089796 -1.9959974 0.83466578
19.059925 -1.8747197 0.8328411
20.938965 -0.5112803 0.91082489
20.944704 -0.38284639 0.91095525
20.953653 -0.25440979 0.91125935
20.967806 -0.1259138 0.91182411
20.987167 0.0027471019 0.91264957
21.00074 0.13160953 0.91325784
21.014523 0.26065105 0.91390949
21.025513 0.38982958 0.91447425
21.027719 0.51895559 0.91469151
21.034124 0.64827728 0.91512597
24.069416 5.7194405 1.075829
19.501093 2.5120945 1.3714684
19.546604 2.639982 1.3757826
19.495466 2.7549827 1.3733472
19.473007 2.9959867 1.3742517
19.71587 3.9065294 1.4019456
21.603403 9.0852556 1.6346986
1.3912507 -7.5094886 2.2927458
1.4631519 -7.5108995 2.2972023
-3.3586822 -11.848087 2.3937945
-3.2372296 -11.833571 2.3847311
-3.1688635 -11.869335 2.3879747
-3.5393629 -11.792871 2.3933175
-3.8502316 -11.650043 2.3850172
-3.7291818 -11.642524 2.3763354
-3.6573806 -11.66425 2.3761446
-4.1720238 -12.00276 2.4700227
-3.1353087 -12.039597 2.4183133
-3.071038 -12.096665 2.4259458
-4.2505126 -11.990813 2.4728847
-3.5012107 -11.931163 2.4169776
-3.6251893 -11.815039 2.4022853
-4.3825426 -11.676192 2.4242284
-4.2179084 -11.670933 2.4122074
-4.1806121 -12.269718 2.5196328
-4.4767346 -12.153293 2.517534
-5.5650611 -12.447407 2.650337
-5.4767261 -12.454361 2.6446128
-5.3873467 -12.457998 2.6383162
-5.2543364 -12.464024 2.6292527
-4.0364127 -8.9146309 2.6716049
-3.9796751 -8.934824 2.6702881
-4.1250715 -8.820734 2.6584365
-4.0801468 -8.8660345 2.664494
-4.3534794 -8.5643892 2.8841901
-4.5251288 -8.4478464 2.877002
-4.4462805 -8.4873981 2.8764269
-4.8581209 -8.318572 2.8919535
-4.7573862 -8.3208685 2.8774333
-4.6373873 -8.3472748 2.8666511
-4.55721 -8.3837385 2.8646383
-5.2636886 -8.352438 2.9638352
-4.960319 -8.3751354 2.9221439
-5.2890549 -8.2239399 2.9353702
-4.9844928 -8.2993822 2.9063299
-5.4011917 -8.1759968 2.9416957
-5.3294797 -8.1760874 2.9299071
-5.8717737 -8.0046091 2.9802244
-5.7961454 -8.0040274 2.9667106
-5.4376693 -8.0155735 2.9077675
-5.3995733 -8.0655012 2.9138055
-5.7018094 -7.9763288 2.9434209
-5.5520096 -7.9197941 2.9035983
-5.4818668 -7.9749541 2.9051797
5.2533374 5.991272 3.055531
5.3813887 5.9874649 3.0870385
5.1430206 6.0500774 3.0449686
5.2109756 6.0170407 3.0523086
5.3340111 6.0085015 3.0809519
5.0569906 6.1373477 3.0494442
7.3993831 6.8614302 3.0293918
7.384376 6.9322686 3.0406053
4.9629011 5.898334 3.1913826
4.6799521 5.9216628 3.1248238
4.7842636 5.9032664 3.1458626
4.8579082 5.9195099 3.1703439
4.9230733 5.9244113 3.1890876
5.44379 5.9826474 3.1017184
5.5392375 5.9760714 3.1246328
5.6119609 5.9438915 3.1346581
4.6705351 6.0228605 3.1554255
4.641336 6.1394739 3.18641
5.8738351 6.4375343 3.1014063
6.0516047 6.4313745 3.1428142
5.79566 6.7569885 3.1681285
5.771142 6.8125505 3.1775165
5.4431367 6.9270163 3.1352704
1.6208173 5.7001877 3.3733625
2.9429498 6.0078053 3.3705201
3.727298 6.6495285 3.3684692
1.978323 5.2933331 3.4290915
1.8622029 5.3819017 3.4558082
1.9224516 5.3429627 3.4456921
2.0450597 5.3220091 3.4596989
1.8220025 5.4267941 3.473706
2.4545689 5.4782701 3.4171436
3.0645823 6.1129432 3.4452105
2.8740444 7.2820897 3.4594107
2.9794624 7.2860641 3.4784074
2.7707205 7.3483868 3.4703236
2.8326139 7.3081164 3.4634526
2.9336767 7.3016624 3.4771948
4.0752821 7.8759394 3.4005044
4.164866 7.8707337 3.4146471
4.2482319 7.8525538 3.4235983
3.9965389 8.9355516 3.4836335
6.749856 12.479692 3.4980724
6.5894318 12.54869 3.4944818
8.2332726 13.498032 3.4878187
1.247226 6.1423082 3.56778
3.0982444 7.3188648 3.5119545
4.903264 9.6978731 3.5560682
4.8525624 9.7456436 3.5625992
4.8060617 9.8025417 3.5725515
6.8347116 12.453362 3.5023813
6.6786346 12.531156 3.5009451
6.9667325 12.511288 3.5306282
6.4627147 12.683108 3.5095627
6.5323853 12.627692 3.505254
8.3821964 13.554399 3.5156074
8.4761 13.520085 3.5201311
8.5882282 13.513977 3.5321946
-14.34453 -11.843258 3.6158307
-15.519319 -10.856151 3.681469
-13.647954 -9.2088022 3.6319327
1.4299014 6.1639729 3.6019142
3.2570388 9.65135 3.6251249
-14.767585 -8.8189745 3.7943573
-14.602933 -8.8426533 3.7659221
2.707418 9.4838476 3.7819982
2.5999079 9.5496912 3.7952459
2.6514323 9.5083752 3.7852206
2.3665061 10.376652 3.787739
-14.944787 -8.6777887 3.8122368
2.4536419 9.7145205 3.8421493
2.4398117 10.403212 3.8028271
5.1183763 12.962025 3.8046141
4.8170009 13.133545 3.8190992
4.0790348 13.66026 3.8920522
1.1126733 10.923841 3.9077718
1.1909149 11.020779 3.9449887
1.3964121 11.019422 3.9530356
1.4666073 11.030258 3.9600766
1.5350395 11.02665 3.9620883
1.7206339 11.957465 3.9532256
2.3997078 11.952356 3.9893026
2.959389 12.758821 3.931941
2.853658 12.838751 3.9483302
3.0573895 12.823339 3.957531
3.1376095 12.81085 3.9595437
4.1813674 13.695869 3.9094346
4.2661867 13.672718 3.9102247
4.3523445 13.653637 3.9123316
4.4315605 13.612915 3.908381
-14.832311 -7.48838 4.0965247
-14.918728 -7.3036661 4.0953279
-14.880588 -7.3985262 4.0972428
-14.956264 -7.2086163 4.0934129
2.6513648 12.051889 4.0381308
2.5862985 12.109756 4.0521264
1.4715602 12.373592 4.0776291
1.5462751 12.354899 4.0745187
-2.0046237 9.7638721 4.1266494
-2.0748298 9.8001995 4.1473055
-1.9540495 9.8231106 4.1465406
-1.8670741 9.8592434 4.1543822
-1.7352283 9.8209114 4.1289444
-1.6469318 9.849267 4.1342998
-1.5822101 9.8327322 4.1232066
-1.5330014 9.9143906 4.1534262
-1.1480508 10.069019 4.1956949
-1.3005573 10.717817 4.1400404
0.15364589 10.792542 4.1389661
0.2521821 10.759817 4.1271505
0.35014212 10.722561 4.113903
0.44846144 10.710438 4.1106811
0.54802185 10.72549 4.1181998
0.64842379 10.748367 4.1291199
-0.34381723 10.814264 4.1489916
-0.11223473 10.887362 4.1751285
0.054575339 10.854138 4.1622391
-0.24696934 10.935572 4.1944628
-0.17988065 10.937815 4.1948209
-0.045483563 10.900917 4.180141
-1.0582448 10.107237 4.2073617
-1.3878014 10.878203 4.205204
-2.4662938 11.08467 4.3545074
-2.6617093 11.153103 4.3969355
-2.5548909 11.159434 4.3899536
0.023924097 13.373159 4.3761969
0.10624342 13.406024 4.3870821
-3.4575562 10.988952 4.4175229
-3.4032528 11.052794 4.4347091
-3.6474648 11.114254 4.4855509
-2.9196217 11.166146 4.4257579
-2.8390586 11.136802 4.4071398
-2.7679701 11.143139 4.402843
-3.1706657 11.274101 4.4909215
-3.0228906 11.27789 4.4773159
-4.0469913 11.057589 4.5152683
-3.9629197 11.144557 4.535677
-3.9270504 11.262117 4.5736294
-3.8397529 11.23299 4.5521469
-3.75741 11.216498 4.5360346
-3.6043415 11.21465 4.5170584
-3.3570454 11.270627 4.5095396
-3.2552803 11.30827 4.512404
-3.1236832 11.374377 4.5231452
