# .PCD v0.7 - Point Cloud Data file format
VERSION 0.7
FIELDS x y z
SIZE 4 4 4
TYPE F F F
COUNT 1 1 1
WIDTH 1040
HEIGHT 1
VIEWPOINT 0 0 0 1 0 0 0
POINTS 1040
DATA ascii
-12.925534 -20.173985 -1.8519987
-13.006179 -20.028236 -1.8459103
-4.4577894 -15.80316 -1.7228992
-4.3604751 -15.829256 -1.7227948
-4.2624917 -15.852832 -1.7224817
-4.5532923 -15.770732 -1.7223774
-4.8325391 -15.65099 -1.718725
-4.7335396 -15.670826 -1.7176814
-4.8045955 -14.60145 -1.6129091
-4.8428011 -14.418963 -1.5960037
-4.9079685 -14.321238 -1.5884901
-4.9819655 -14.251423 -1.5841072
-5.1439085 -14.154628 -1.5802461
-5.0609679 -14.197165 -1.5814983
-5.7457561 -10.330643 -1.5017238
-5.683691 -10.368314 -1.5021019
-15.248393 -11.040784 -1.4551803
-15.361275 -10.979481 -1.4594961
-3.4036226 -10.807654 -1.4394671
-3.342211 -10.844451 -1.4416095
-3.2693081 -10.843859 -1.4388369
-15.204318 -10.726956 -1.4383026
-3.6026103 -10.745054 -1.4397191
-3.540946 -10.780152 -1.4414835
-3.4653163 -10.772401 -1.4375767
-3.1438551 -10.785806 -1.4272425
-3.0336695 -10.776151 -1.4222015
-3.649848 -10.668307 -1.4324096
-3.7492239 -10.534862 -1.4205632
-3.6975875 -10.595134 -1.4256042
-3.8351004 -10.470047 -1.4165304
-15.068588 -10.356596 -1.4133329
-14.934394 -10.39986 -1.4067051
-5.0936279 -10.319915 -1.4620256
-3.9406431 -10.362885 -1.4084647
-15.046865 -10.206295 -1.405395
-5.5563107 -10.285164 -1.4850883
-5.4660611 -10.268273 -1.4777789
-5.3381081 -10.254292 -1.468642
-5.226635 -10.269893 -1.4639161
-5.1595211 -10.293788 -1.4627818
-4.047915 -10.263892 -1.4016593
-15.054523 -10.077173 -1.4003086
-3.0325036 -9.1108608 -1.4916679
-15.862574 -9.0034161 -1.4098649
-15.75778 -9.0722218 -1.405472
-3.1281886 -9.0272245 -1.4841462
-2.9092057 -9.0166578 -1.4717892
-2.6702347 -9.0284824 -1.462579
-2.5597775 -9.0624723 -1.462886
-2.090966 -9.0856762 -1.4483032
-16.047163 -8.9784517 -1.4213479
-3.2244501 -8.9486637 -1.4776223
-2.8315024 -8.9636688 -1.4602765
-2.7390833 -8.9571686 -1.4550574
-16.281403 -8.8489361 -1.4323685
-16.097588 -8.8774118 -1.4209626
-3.3348584 -8.8279219 -1.4659561
-3.2926517 -8.8806458 -1.4713287
-16.458942 -8.7501097 -1.4408458
-3.4560475 -8.7407722 -1.4601229
-3.3776069 -8.7777815 -1.461044
-16.54414 -8.6010981 -1.4413083
-16.601042 -8.5016956 -1.4416935
-3.4902735 -8.5951033 -1.4410886
-3.651823 -8.3257437 -1.4123068
-3.5383878 -8.3440018 -1.4079318
-16.632685 -8.2618513 -1.4355283
-4.1644244 -8.2274513 -1.4324924
-4.0031691 -8.2193155 -1.4202121
-3.9483888 -8.2348137 -1.4186771
-3.8648839 -8.2546501 -1.4159141
-3.7596292 -8.293355 -1.4145324
-16.828039 -8.1029711 -1.4436973
-16.735014 -8.1850471 -1.4399981
-4.566083 -8.1341181 -1.4490707
-4.441638 -8.1448164 -1.4411653
-4.3448448 -8.1448669 -1.4340274
-4.2662401 -8.177907 -1.4328761
-4.0412593 -8.1697979 -1.4159141
-4.6354127 -8.0823317 -1.4473822
-16.864828 -7.9935856 -1.4426184
-4.7954669 -7.9053092 -1.43633
-16.90904 -7.8878469 -1.4422331
-4.8456388 -7.8246708 -1.4297293
-16.973433 -7.7914333 -1.4436203
-4.9311352 -7.7488289 -1.4268128
-17.009108 -7.6818051 -1.4426184
-5.009851 -7.6120129 -1.415607
-4.977581 -7.6649857 -1.4197516
-17.024031 -7.5631266 -1.439921
-5.2233176 -7.5273643 -1.4232821
-5.1451826 -7.5624166 -1.420903
-5.061398 -7.5885286 -1.4169886
-5.327908 -7.4804063 -1.4266592
-5.271111 -7.4975982 -1.4237427
-17.142126 -7.3650599 -1.442156
-5.4529357 -7.3651862 -1.4235892
-15.091946 -9.9686747 -1.3980737
-15.136958 -9.8655415 -1.3966093
-15.157792 -9.7471313 -1.3929873
-15.191216 -9.6373844 -1.3905982
-15.26105 -9.5508671 -1.3916
-15.315125 -9.4544287 -1.3912146
-15.343041 -9.3421307 -1.3885173
-15.435975 -9.2693701 -1.3917542
-15.61658 -9.1189661 -1.3978424
-15.532881 -9.1983595 -1.3953763
-3.4361448 -8.3150778 -1.3976471
10.162351 -7.7131195 -1.3386645
-2.5315466 -7.4164748 -1.3902732
-2.0618582 -7.4313078 -1.3681762
-1.9227337 -7.4603796 -1.3667789
-1.847512 -7.4515057 -1.3619752
-2.2307553 -7.3360672 -1.3603158
-2.1529856 -7.3218513 -1.3539399
-1.9690868 -7.3591666 -1.3514944
-1.748283 -7.3393021 -1.3384808
4.6939535 -7.3492584 -1.3546662
-3.1203296 -7.2047257 -1.3928934
-3.0544484 -7.2344656 -1.3931555
-2.9539363 -7.2431307 -1.3877404
-2.8513224 -7.2444711 -1.3811898
-2.7637217 -7.2162061 -1.3708838
-2.511601 -7.2129688 -1.354988
-2.3284137 -7.255559 -1.3518437
-2.2782435 -7.2518611 -1.3485248
-2.0955083 -7.2913933 -1.3459047
-1.6481929 -7.2135615 -1.3127155
4.7010851 -7.2129979 -1.3374739
-3.3381894 -7.1020555 -1.3921947
-3.2480323 -7.1364174 -1.3910302
-3.1617002 -7.1791363 -1.3916707
-2.7055316 -7.1961627 -1.3638966
-2.643261 -7.1636691 -1.3546387
-2.5717082 -7.1723719 -1.3517565
-2.3910379 -7.1480026 -1.3371707
5.0538712 -7.1168633 -1.3559711
-3.5031059 -7.0012627 -1.3888758
-3.4417319 -7.0398164 -1.3901858
-3.3817039 -7.081439 -1.3921947
2.8475375 -6.9478707 -1.332105
2.9394245 -6.9286513 -1.3352493
3.0574152 -6.8529696 -1.3312899
3.1469505 -6.8272424 -1.3336771
3.2480004 -6.8247457 -1.3408972
3.3730087 -6.8690395 -1.3576082
-3.6208723 -6.7137198 -1.3532412
-3.573813 -6.7750483 -1.3589183
3.3693943 -6.7565751 -1.3394415
3.4461672 -6.7542 -1.345206
3.5177898 -6.7405477 -1.3488742
3.6044381 -6.7046766 -1.3504463
-3.6698713 -6.6572418 -1.3486123
-0.87533307 -6.6297803 -1.3812318
-0.60566604 -6.6092186 -1.3708147
-0.5250569 -6.6229873 -1.3722306
-0.44324148 -6.6209879 -1.3706124
-0.34254992 -6.6447058 -1.3742533
-0.24133296 -6.6715956 -1.3789057
0.61395442 -6.6045194 -1.3700056
3.6257043 -6.6461306 -1.3431098
-3.7512362 -6.5646462 -1.341363
-1.415144 -6.5083413 -1.3756692
-1.2962495 -6.5390506 -1.3768829
-1.1541936 -6.5576267 -1.3752646
-1.0501963 -6.5545335 -1.3710843
-0.9708277 -6.5744328 -1.3726351
-0.80728275 -6.5807252 -1.3693987
-0.74626923 -6.5844421 -1.3686908
-0.6642704 -6.5819001 -1.3663647
-0.56218272 -6.5786581 -1.3637351
-0.44171542 -6.5986404 -1.3659601
0.67287064 -6.5810266 -1.3663647
0.76703215 -6.5125723 -1.3544304
0.85101414 -6.5339818 -1.3609706
0.95210862 -6.527163 -1.3624203
1.0316093 -6.5116005 -1.3617123
1.1548376 -6.5112696 -1.365859
3.479347 -6.5683103 -1.3186547
-3.9282928 -6.4096065 -1.3336771
-3.8583782 -6.4724655 -1.3368212
-1.8166381 -6.4272213 -1.3795125
-1.6573864 -6.4660735 -1.3787034
-1.5380863 -6.4954853 -1.3787034
-1.4710745 -6.4778204 -1.3720284
-1.3474228 -6.4836612 -1.3677806
-1.2041184 -6.4909139 -1.3635328
0.72412562 -6.4908776 -1.348969
1.0900427 -6.4931684 -1.3598919
1.2285892 -6.4653625 -1.3592851
-16.749069 -6.3589253 -1.3848181
-4.0334201 -6.3171258 -1.3296595
-3.973772 -6.3518715 -1.3292228
-2.0369315 -6.3094025 -1.3693987
-1.962975 -6.3460426 -1.3720284
-1.8687007 -6.3862295 -1.3743545
-1.2238092 -6.3785686 -1.3414849
3.6665332 -6.3454256 -1.3001387
-16.883066 -6.2915473 -1.392679
-4.0717311 -6.249609 -1.3232837
-2.0797172 -6.2448387 -1.3594873
1.269372 -6.2602453 -1.3193358
1.3466883 -6.2460737 -1.3197403
1.4000752 -6.2157845 -1.3159983
1.7645717 -6.2119327 -1.3337984
1.8471464 -6.211257 -1.3384508
1.9538865 -6.2196789 -1.3465416
3.7908423 -6.2903547 -1.3029336
3.8731012 -6.2949815 -1.3112308
3.9508061 -6.2482538 -1.3114928
4.053792 -6.2401352 -1.3201394
4.1595583 -6.234158 -1.3295722
-4.148272 -6.1584778 -1.3173155
-2.1110666 -6.1494994 -1.3429008
1.8406687 -6.1898112 -1.3337984
2.0403244 -6.1625862 -1.3408107
4.2192698 -6.1587238 -1.324419
-4.2471814 -6.0614548 -1.3130649
-2.1089497 -6.0227413 -1.3180211
4.2787046 -6.0839081 -1.3195281
4.3818417 -6.0708714 -1.3282621
-4.3267298 -5.9776754 -1.3091347
-2.4509332 -5.9281731 -1.3249658
-2.3559065 -5.9552202 -1.3227745
-2.2438409 -5.9367347 -1.310874
-2.15729 -5.9837065 -1.3137733
-16.837282 -5.8080206 -1.376726
-2.7286716 -5.8252792 -1.3286405
-2.6366112 -5.8612022 -1.3274606
-2.5351286 -5.874763 -1.3215609
-0.42694923 -5.8043127 -1.329756
-0.3737081 -5.8109417 -1.3304243
0.53714395 -5.8064127 -1.3323176
0.69868755 -5.8014979 -1.3351018
0.77111256 -5.8021507 -1.3373293
0.8085804 -5.8108282 -1.3404475
-2.840374 -5.7397289 -1.3227409
-2.7811177 -5.7977409 -1.3281348
-0.9377889 -5.7238116 -1.3252271
-0.84832144 -5.7267952 -1.3227398
-0.75768828 -5.7186294 -1.3180251
-0.64921141 -5.704813 -1.3118626
-0.54880685 -5.7662702 -1.3234452
-0.47939828 -5.7885056 -1.3270832
-0.3353858 -5.7673836 -1.3199555
-0.2635192 -5.7463188 -1.3143128
-0.15838145 -5.7745576 -1.3198813
-0.087110482 -5.7550206 -1.3150553
0.58911687 -5.787189 -1.3290879
0.64259183 -5.7834301 -1.3295333
0.73427171 -5.7971015 -1.3351018
0.85589886 -5.7621355 -1.3309811
0.94406486 -5.7474799 -1.3307955
1.0086678 -5.702251 -1.3230739
-16.844267 -5.6950192 -1.3744141
-2.9220679 -5.6410055 -1.312155
-2.8963025 -5.6762753 -1.3162005
-1.609938 -5.6203051 -1.33577
-1.5403446 -5.6376786 -1.3353246
-1.446985 -5.6347322 -1.3291992
-1.3619291 -5.6626968 -1.3307213
-1.2474375 -5.6407676 -1.3199555
-1.1420685 -5.6570745 -1.3186191
-1.0368997 -5.6723371 -1.3175055
1.0605841 -5.6898212 -1.3224057
1.1477333 -5.6731687 -1.3224801
1.2108974 -5.6288567 -1.3155007
-16.83725 -5.5777621 -1.3710231
-3.2046981 -5.5069137 -1.3159983
-3.1450512 -5.5602379 -1.319437
-3.0390387 -5.5704594 -1.310638
-2.9575677 -5.583128 -1.3049743
-1.6591488 -5.5350342 -1.3202525
1.2392973 -5.5937185 -1.3090413
-3.257719 -5.4433103 -1.3102672
-1.8245904 -5.4150887 -1.3055888
-1.7518029 -5.4753723 -1.313496
-3.3409204 -5.3561287 -1.3038619
1.9554842 -5.3577943 -1.3031387
2.3751688 -5.1827269 -1.3025818
2.5151896 -5.110837 -1.3014681
-16.521708 -5.0267663 -1.3348787
0.46396676 -5.0289497 -1.3079957
-1.4910076 -4.8080325 -1.3037333
-1.3491964 -4.8747873 -1.3100014
4.5159707 -6.836895 -1.272849
4.5659704 -6.7761707 -1.2693183
4.6264982 -6.7314396 -1.268858
4.6558561 -6.6858959 -1.2656343
7.4710898 -6.5836105 -1.2650473
7.5188284 -6.544158 -1.2663076
5.0244827 -6.4272861 -1.2673229
5.1499519 -6.423738 -1.2789891
5.2017264 -6.407361 -1.2820592
7.5595932 -6.4985466 -1.2664336
7.6588421 -6.4622631 -1.2730498
3.5520182 -6.3251915 -1.2869796
5.2591414 -6.3974595 -1.2865108
7.7318621 -6.3630147 -1.2721047
7.807085 -6.3053608 -1.2748773
3.6859834 -6.2896786 -1.2933261
3.7426162 -6.2974148 -1.2996147
7.8254623 -6.2412562 -1.2716006
-15.165405 -6.1876326 -1.2660577
7.8606291 -6.1518636 -1.2680719
7.8784328 -6.0496359 -1.2618966
7.8972225 -5.9873962 -1.258998
7.940959 -5.9441772 -1.2601323
7.9278183 -5.8587861 -1.2523187
5.9324374 -5.5017972 -1.2568847
6.0331192 -5.526701 -1.2710069
-4.5241046 -5.4029789 -1.2501804
1.2462912 -5.4662476 -1.2809761
1.7321019 -5.4060068 -1.2970133
6.0280824 -5.4544396 -1.2628713
6.1408434 -5.4544287 -1.2759191
6.2625532 -5.4265738 -1.2872784
-4.7185183 -5.3290715 -1.2627573
-4.6441021 -5.3764935 -1.2603991
-4.5597186 -5.3781219 -1.250879
-1.9414078 -5.3260899 -1.2952313
-1.8720312 -5.3384743 -1.2925584
1.6895624 -5.3867669 -1.2898856
1.7748526 -5.3689971 -1.2920017
1.8358959 -5.3329687 -1.2886605
1.9485097 -5.3388376 -1.2985725
6.344142 -5.3623934 -1.2904251
7.8899446 -5.3933868 -1.2141329
7.9944367 -5.3931403 -1.2250971
8.0817575 -5.3444843 -1.2308943
-4.8338971 -5.2287083 -1.2632813
-4.780582 -5.2674847 -1.2619712
-3.4174304 -5.2253933 -1.2896014
-3.3916948 -5.2916741 -1.2981981
-2.0190907 -5.2376184 -1.2825353
-1.98386 -5.2906747 -1.2909994
2.0485375 -5.2592678 -1.2895886
2.1509483 -5.2350879 -1.2931525
2.2147636 -5.2077818 -1.293004
4.3736181 -5.2374606 -1.2105281
6.3685222 -5.283319 -1.2854363
8.1813564 -5.2671804 -1.2361244
8.2458839 -5.2020106 -1.2385819
-4.906147 -5.1146865 -1.2573422
-4.8672571 -5.1685829 -1.2595258
-3.4452529 -5.1294103 -1.2762513
-2.3260901 -5.1226377 -1.2854309
-2.2555568 -5.1337814 -1.2811989
-2.1445405 -5.1353889 -1.2715467
-2.0640144 -5.1644773 -1.27073
1.5537946 -5.1184878 -1.2221727
2.264365 -5.191165 -1.2940063
2.3174102 -5.1821518 -1.2970133
8.277647 -5.1513166 -1.2385819
-4.9436865 -5.0597973 -1.2549841
-3.4706635 -5.0327473 -1.2626989
-2.4336555 -5.0279717 -1.2762985
-2.365941 -5.085515 -1.281533
2.5711854 -5.0667882 -1.2982012
2.6181722 -5.0061059 -1.2907766
6.4201264 -5.033566 -1.2673229
8.2879629 -5.0874548 -1.2354312
8.3122339 -5.0323949 -1.234423
-5.3205819 -4.9056635 -1.2838935
-5.2737598 -4.9530382 -1.2835441
-5.1640234 -4.9705725 -1.2715786
-5.0584717 -4.9900122 -1.2605737
-4.9695945 -4.993504 -1.249831
-3.5000734 -4.9123039 -1.245809
-3.4935284 -4.9673319 -1.2543045
-2.5188825 -4.9311981 -1.2651615
-2.4756141 -4.958539 -1.2662753
0.85314924 -4.918129 -1.2927854
0.96280944 -4.9202423 -1.2984684
2.6512539 -4.9577017 -1.2845399
2.7191961 -4.9380217 -1.2879924
5.1968699 -4.924109 -1.2700938
6.4751725 -4.9495482 -1.2660949
8.3318825 -4.9746861 -1.2327846
-5.3530598 -4.8452444 -1.280924
-3.5158195 -4.8708835 -1.2407521
-2.6651833 -4.8447881 -1.2633796
-2.5678356 -4.8422933 -1.252317
-1.3930863 -4.8030515 -1.2952089
0.91091621 -4.8937087 -1.2891917
1.243436 -4.8388886 -1.2939553
2.7743011 -4.8949518 -1.2855422
2.8494005 -4.8525109 -1.2857279
2.9010742 -4.8044248 -1.2823125
5.1749063 -4.8136711 -1.2538486
6.4951839 -4.8707972 -1.2611828
6.5484791 -4.8172073 -1.2628713
8.24086 -4.8519979 -1.214889
-5.4038477 -4.7424378 -1.2755089
-5.3827438 -4.7826996 -1.2774303
-3.7132301 -4.7046657 -1.2379203
-3.6390915 -4.7288284 -1.2324588
-3.5508838 -4.7637558 -1.2271998
-3.4993982 -4.7859755 -1.2245702
-2.7222986 -4.7062631 -1.2422193
-2.6898432 -4.7506423 -1.2473423
-1.5541087 -4.7527595 -1.2950835
-1.4245183 -4.7478304 -1.2838013
1.5914375 -4.7205977 -1.2901946
5.2430887 -4.7583818 -1.2561195
5.3324194 -4.7214203 -1.2635434
8.2395353 -4.7497387 -1.2082096
-5.4179649 -4.6962924 -1.2720153
-3.8198955 -4.6317797 -1.2400441
-3.7625074 -4.6778889 -1.239943
-2.8118215 -4.6287937 -1.2374305
-2.769712 -4.6881142 -1.2441126
-1.7547268 -4.6329803 -1.2830909
-1.6553719 -4.6709709 -1.2834878
-0.09389542 -4.6024084 -1.2948148
-4.1346178 -4.5118966 -1.2640138
-4.070673 -4.5249434 -1.2571363
-3.952035 -4.5309811 -1.2418309
-3.8676424 -4.5740447 -1.2372123
-2.9190474 -4.5497761 -1.2350917
-2.858882 -4.5786285 -1.2333097
-1.9194893 -4.5155497 -1.270764
-1.8377247 -4.5542979 -1.2719549
-0.75233334 -4.5296535 -1.2915657
-0.62517232 -4.5360427 -1.2879554
-0.54347873 -4.5620656 -1.2922877
-0.44623858 -4.5810943 -1.2946794
-0.34668544 -4.5754323 -1.2906631
-0.24813887 -4.5792127 -1.2899411
-0.15023838 -4.5969744 -1.2937318
-0.065530241 -4.5942349 -1.2923779
0.38445362 -4.5708618 -1.2902118
0.45122468 -4.5312715 -1.2808702
0.54920673 -4.5277658 -1.282901
0.71588957 -4.5064263 -1.2834426
-4.1848836 -4.4558082 -1.2625977
-2.9487305 -4.4446125 -1.2186832
-2.0257161 -4.4222312 -1.2597742
-1.9652214 -4.4699388 -1.2646214
-1.0162678 -4.4211421 -1.2759964
-0.95184845 -4.4523215 -1.2806447
-0.85739672 -4.4790974 -1.2827656
0.59971929 -4.482564 -1.2720703
0.65353233 -4.4665465 -1.2697235
0.76569992 -4.4659457 -1.2745072
0.84834296 -4.4535995 -1.2752293
0.94721675 -4.4508791 -1.2799902
1.0374976 -4.4077368 -1.273695
-4.161242 -4.3229904 -1.2393363
-3.046329 -4.3272567 -1.2091426
-2.9969168 -4.398983 -1.2161589
-2.2082167 -4.3202877 -1.2565984
-2.1449249 -4.3602924 -1.2585415
-2.0750675 -4.3868666 -1.2568492
-1.2348018 -4.3249192 -1.2651205
-1.1450514 -4.3635921 -1.2689564
-1.0622964 -4.3746548 -1.2662487
1.0618653 -4.3900466 -1.2704457
1.1341236 -4.3928843 -1.2761319
5.4682555 -4.3276958 -1.2371668
-4.3059001 -4.2069988 -1.2433817
-4.2486429 -4.2280636 -1.2380214
-4.1679039 -4.2509413 -1.229627
-3.1150973 -4.2564154 -1.2051332
-2.3588533 -4.2542887 -1.2598578
-2.2615323 -4.2621031 -1.2496409
-1.5144498 -4.2061863 -1.2574488
-1.4219108 -4.2322493 -1.2558241
-1.3416035 -4.2507291 -1.2537935
-1.2827358 -4.2925882 -1.2601565
5.4989572 -4.2702341 -1.235158
5.5750628 -4.2747569 -1.2463374
-15.151782 -4.1565142 -1.2144613
-4.5230989 -4.1048932 -1.2615864
-4.476192 -4.1126914 -1.2555182
-4.3055048 -4.1299281 -1.2322567
-2.4305604 -4.1117468 -1.2370424
-2.3801258 -4.1418204 -1.2372096
-1.7079086 -4.1001501 -1.2493258
-1.6511216 -4.1049609 -1.2445421
-1.568608 -4.155839 -1.2494611
-1.4677415 -4.1972027 -1.2506795
1.7380295 -4.1469712 -1.2647595
-15.233312 -4.0285478 -1.2179679
-4.6090598 -4.0808897 -1.2714978
-4.5751219 -4.0510898 -1.2621932
-4.3448448 -4.0663381 -1.2291213
-2.5393717 -4.0370297 -1.2352246
-2.4700441 -4.0920815 -1.2379199
-1.8134114 -4.0028648 -1.2360581
-1.7644482 -4.0594988 -1.2450612
-15.265468 -3.9369943 -1.2185844
-4.5778022 -3.9296756 -1.2461123
-2.6239643 -3.9529707 -1.2288314
-2.0199523 -3.9330401 -1.2436396
-1.9612479 -3.9367836 -1.2371413
-1.8607702 -3.9453306 -1.2269874
-15.697093 -3.8435042 -1.2491801
-15.365726 -3.8624547 -1.2246728
-4.588902 -3.84238 -1.236201
-2.7383664 -3.8375595 -1.2209964
-2.6786294 -3.8783603 -1.2207458
-2.0395787 -3.8543539 -1.2265812
-4.5583558 -3.7225733 -1.215569
-2.9257932 -3.7016659 -1.2219993
-2.8568535 -3.7306318 -1.216985
-2.7851412 -3.77917 -1.2158568
-2.2057235 -3.7148616 -1.2152089
-2.1589518 -3.7665496 -1.2211659
-2.0800431 -3.7888384 -1.2157505
-1.5329959 -3.7219906 -1.259949
-1.3744602 -3.7916071 -1.2623386
5.7871914 -3.7452455 -1.2229304
-15.626526 -3.6235611 -1.2399321
-4.9488664 -3.6050811 -1.2646205
-4.6344705 -3.6676781 -1.220727
-3.8166904 -3.6130128 -1.2007898
-3.0027618 -3.6131136 -1.2167343
-2.9664676 -3.6599407 -1.2201606
-2.3621478 -3.6394024 -1.2204212
-2.2577353 -3.6729155 -1.2127043
-1.6273211 -3.6305428 -1.2453123
-1.5809736 -3.6770508 -1.25278
5.7885275 -3.6710029 -1.2160306
5.8158412 -3.6136639 -1.2147205
-15.785605 -3.5585253 -1.2507985
-5.0083723 -3.5322001 -1.2658342
-4.9993544 -3.5719736 -1.2690706
-4.7535005 -3.530261 -1.222952
-4.6280231 -3.5485463 -1.204545
-4.0769844 -3.518321 -1.2304142
-3.24121 -3.5103135 -1.2374184
-3.1552165 -3.5460048 -1.2293328
-3.0494423 -3.5788145 -1.2177371
-2.5426464 -3.5257638 -1.2227228
-2.4390297 -3.5632792 -1.2145997
-1.8132868 -3.5119021 -1.2370979
-1.7415079 -3.5582073 -1.2399952
-1.6764717 -3.5913689 -1.240533
-1.2199607 -3.5375385 -1.2564267
-1.1454877 -3.5679493 -1.2582302
-1.0494026 -3.5675011 -1.2486018
5.8374615 -3.5530722 -1.2123623
-15.906485 -3.4833546 -1.2586594
-5.0227175 -3.4963672 -1.2640138
-4.9762731 -3.4188991 -1.2470226
-4.6519217 -3.4993126 -1.20232
-4.1299195 -3.4549522 -1.2302657
-3.9661255 -3.4868183 -1.206581
-3.3167884 -3.4409559 -1.2377945
-3.2690756 -3.4757755 -1.2357888
-2.6502786 -3.4471071 -1.2230612
-2.5960565 -3.485852 -1.2225196
-1.916326 -3.4230373 -1.2278877
-1.8602122 -3.4711859 -1.232667
-1.4160162 -3.4111433 -1.2400874
-1.3528115 -3.4361424 -1.23996
-1.2678474 -3.4678841 -1.2397691
5.8713665 -3.4513857 -1.2082573
-5.0465026 -3.309845 -1.2465169
-4.98557 -3.3581734 -1.2415612
-4.158638 -3.3508446 -1.2202424
-3.3448448 -3.344676 -1.2250916
-2.7584088 -3.3058746 -1.2110572
-2.6857243 -3.3421695 -1.2060028
-2.0494788 -3.3408599 -1.2267926
-1.9641662 -3.3615921 -1.2186278
-1.5498879 -3.3230209 -1.2311749
-1.4626831 -3.3763251 -1.235472
4.1349206 -3.3708184 -1.2189059
-15.65704 -3.2279031 -1.2356933
-5.114769 -3.2656417 -1.2533944
-4.1767559 -3.2404392 -1.2078432
-3.5189991 -3.2088351 -1.233407
-3.442934 -3.2177343 -1.220495
-3.3847408 -3.2621224 -1.2174864
-2.845746 -3.2252679 -1.2098613
-2.7983379 -3.2713711 -1.2108766
-2.2495987 -3.2285881 -1.2316713
-2.1508062 -3.2543092 -1.2209976
-2.0851872 -3.2849371 -1.2178313
-1.7299106 -3.2067313 -1.2233768
-1.6450462 -3.2374153 -1.219345
1.660877 -3.256197 -1.2273555
-15.551404 -3.1067715 -1.2258288
-5.2478819 -3.1282425 -1.2618898
-5.1463504 -3.1756382 -1.2490454
-4.3181415 -3.1428435 -1.2202795
-4.2494426 -3.1596375 -1.2099222
-3.7045166 -3.1168003 -1.2538404
-3.6613894 -3.1578798 -1.2522527
-3.5645971 -3.1712275 -1.2356634
-2.9457638 -3.1391346 -1.2108766
-2.8921864 -3.1782973 -1.2087104
-2.3399971 -3.1278481 -1.2226852
-2.2869382 -3.1772342 -1.2252989
-1.844067 -3.1142733 -1.2152601
-1.7767345 -3.1761072 -1.2219443
-1.254945 -3.1153328 -1.2390991
-1.1484877 -3.1550705 -1.238753
-1.0627946 -3.1903832 -1.240599
-0.34554058 -3.1290743 -1.2350394
0.0014122031 -3.1195409 -1.2237911
0.26127201 -3.1288254 -1.2317343
-5.2629623 -3.0504105 -1.2564285
-4.4607763 -3.0617638 -1.2362053
-4.3672614 -3.0972028 -1.2232865
-3.7446685 -3.0537336 -1.2514586
-3.0786204 -3.0104442 -1.2111473
-2.9870162 -3.0678561 -1.2043781
-2.5267355 -3.0150149 -1.2312731
-2.4605198 -3.048069 -1.2261204
-2.3888636 -3.0735748 -1.2184286
-2.036335 -3.0224936 -1.223695
-1.9490807 -3.0725758 -1.2217534
-0.74837297 -3.0329025 -1.2255563
-0.64675534 -3.0619171 -1.2277353
-0.55206013 -3.0775619 -1.2266397
-15.464455 -2.9908452 -1.2175055
-5.271699 -2.9909399 -1.2518772
-4.5080876 -2.934165 -1.2289664
-4.4683337 -2.9671733 -1.2255139
-3.7759843 -2.9651706 -1.2434357
-3.2201307 -2.9248486 -1.2236028
-3.1494231 -2.9681954 -1.2173074
-2.6467006 -2.9499631 -1.240533
-2.5676098 -2.988466 -1.2332146
-2.2462072 -2.9101167 -1.2343581
-2.1514289 -2.9525363 -1.2266393
-2.0862691 -2.9767599 -1.220512
-15.515282 -2.8527718 -1.2193936
-4.5355759 -2.8540657 -1.2244002
-3.8700702 -2.8332989 -1.2422239
-3.3533382 -2.8630333 -1.240255
-3.2622726 -2.8908496 -1.2260396
-15.541441 -2.70997 -1.2194322
-4.657239 -2.7539327 -1.2362053
-4.5701566 -2.7787859 -1.2220614
-15.573508 -2.6172023 -1.2206652
-15.592227 -2.5220735 -1.2208965
-15.602483 -2.4255881 -1.2205111
-15.62003 -2.3302486 -1.2207423
-15.64884 -2.2364781 -1.2218983
-15.653378 -2.1392014 -1.2212048
-15.704766 -2.0481424 -1.2242104
1.1883454 -5.0684013 -1.18943
1.4479725 -4.989233 -1.18698
8.1464729 -4.5966263 -1.1882975
-3.1404805 -4.2092037 -1.1998988
-3.2142341 -4.12041 -1.1939962
-3.1643147 -4.1607065 -1.1943303
-3.3276565 -4.031208 -1.1943303
-3.2584612 -4.0730472 -1.1917689
-3.3676682 -3.9300454 -1.182525
-3.5343874 -3.8534765 -1.1947201
-3.4431477 -3.8954248 -1.187871
-3.6382916 -3.7532341 -1.1943303
-3.5913541 -3.7969208 -1.1941075
-3.7534144 -3.6413739 -1.1948501
-3.6813531 -3.6828616 -1.1897641
-3.8358104 -3.542989 -1.1930681
-3.9140718 -3.4838657 -1.1972259
-3.8803098 -3.496722 -1.1934394
0.16656017 -3.1554356 -1.1657223
-3.0146444 -3.0026653 -1.1967967
-2.9961636 -3.0211062 -1.1967967
0.14586182 -3.0313833 -1.155128
0.20744184 -3.0482569 -1.1985922
0.13022858 -2.9984865 -1.1774105
0.062348746 -2.8455634 -1.1166044
0.10638205 -2.8531749 -1.1200739
0.074169554 -2.7858198 -1.1909889
2.4249084 -2.0507033 -1.1716063
2.256618 -1.9734871 -1.1200457
1.7524983 -1.8121524 -1.1382487
1.753143 -1.7581081 -1.121068
1.807261 -1.7575421 -1.1382487
5.9940186 -1.6829026 -1.1044978
6.0184755 -1.6499974 -1.1071179
2.2933483 -0.99521357 -1.1287839
-2.2691617 0.077005617 -1.1093493
2.0986984 -1.9835782 -1.0653484
2.1506822 -1.9709997 -1.076251
1.7226989 -1.8018945 -1.0653666
1.745283 -1.7487963 -1.055935
-18.099766 -1.5769593 -1.0030445
-18.078249 -1.4633741 -1.0013356
5.8749528 -1.3044628 -1.0676404
5.8756065 -1.2479761 -1.0656316
5.9413924 -1.2049096 -1.075501
2.3318346 -1.0343503 -1.0453688
2.3513741 -0.99590153 -1.0464563
2.4800422 -0.84352958 -1.0276778
5.7370548 -0.85490203 -1.0290363
2.4797087 -0.79269648 -1.0212867
2.5253093 -0.77321422 -1.0360775
-2.2369483 0.096567146 -1.0939844
-2.2135243 0.11595079 -1.0830095
-2.1908641 0.14174336 -1.072693
-2.6523323 0.53489411 -1.0614591
1.2231869 0.7611022 -1.0472095
1.2413914 0.82456303 -1.0597173
1.3241334 0.80118501 -1.0062141
4.7861977 1.2648473 -1.0224979
-18.054031 -1.3499635 -0.99951655
-18.042051 -1.2377939 -0.9984141
-18.04233 -1.126631 -0.99802822
-18.001053 -1.0132108 -0.99538225
-17.985989 -0.90168953 -0.99422461
-17.981209 -0.79087383 -0.99367338
-17.992706 -0.68079257 -0.99405926
-17.975588 -0.56971437 -0.99290162
-17.957783 -0.4588719 -0.99174404
-17.951277 -0.34850195 -0.99124789
-17.959066 -0.23842797 -0.99157864
-17.964186 -0.12825723 -0.99179918
-17.953651 -0.018017614 -0.99119276
-17.916481 0.091954648 -0.98915315
-17.914581 0.20187514 -0.98909807
-17.891043 0.31141084 -0.9878853
-17.74106 0.41770402 -0.97972691
-16.999613 0.50462961 -0.9389348
-16.97624 0.60821277 -0.9378323
-16.994137 0.71328676 -0.93904507
1.1976045 0.78515595 -0.99714524
1.2321782 0.77499384 -0.95257396
1.3440778 0.79048514 -0.97020489
-16.979467 0.81706744 -0.93849379
1.2389207 0.82723194 -0.95010036
-16.979118 0.9215067 -0.9387694
-16.986101 1.0264542 -0.93948603
1.1902311 1.1796666 -0.92740232
1.1866641 1.2328392 -0.94697201
1.2376492 1.2460902 -0.93743479
4.4355664 1.3487145 -0.95756769
4.4729719 1.6815652 -0.98699868
4.4417191 1.9074522 -0.99842721
4.5929446 2.3612447 -0.91619337
4.8330278 2.300061 -0.94955713
4.9065843 2.3721006 -0.9668504
-8.3723478 2.4450793 -0.91519237
-8.5113726 2.5709505 -0.93293267
-8.6037683 2.6565762 -0.94482917
-8.6153831 2.7473011 -0.94884682
-6.8553591 2.9747059 -0.94935256
-6.7988582 2.9998941 -0.94405949
-6.8264847 3.0622621 -0.95048684
-6.8048587 3.1028562 -0.95010877
8.0207329 3.3912356 -0.9137314
7.969533 3.4563732 -0.91148776
7.9278731 3.5253651 -0.91039205
-16.29355 4.5991898 -0.93469024
-5.9003663 4.5307322 -0.9450677
-5.8474574 4.5762577 -0.94330335
-5.7514143 4.6159887 -0.93687606
-5.6510587 4.6506019 -0.92975557
-5.6056433 4.7298951 -0.93177199
-5.4547691 4.7475724 -0.91868633
-5.3500018 4.8323388 -0.9158718
-5.019815 5.0027599 -0.90032852
-4.9466119 5.083415 -0.90108466
-4.8117437 5.2584171 -0.90549558
4.4799747 2.2685213 -0.89086485
9.9312229 4.194921 -0.83332616
9.8750668 4.2427907 -0.83078295
-4.9009299 4.5933838 -0.8533209
-4.8476324 4.6280279 -0.85143054
-5.1976395 4.8119087 -0.89982444
-5.0595922 4.9504294 -0.8992573
-4.9666772 5.01092 -0.89629573
-4.8564487 5.1463823 -0.89894223
-5.3642321 6.320466 -0.86985016
-5.2628202 6.3574562 -0.86598897
-5.1949821 6.3944902 -0.86447585
-6.7152796 7.9674158 -0.80542791
-6.6586118 7.9992747 -0.80450308
-5.2610698 5.1846681 -0.77504373
0.77229011 6.191844 -0.7927025
0.84841621 6.1833744 -0.7928915
0.9471643 6.1955261 -0.79623121
0.66021693 6.2247467 -0.795223
0.71594578 6.2046328 -0.79345864
0.9493826 6.2103596 -0.79812157
-3.4404321 6.5626493 -0.7774961
-3.3574038 6.5502787 -0.77233052
-3.3386626 6.6133714 -0.77733952
-3.2846289 6.658083 -0.77900922
-6.6969614 6.7684216 -0.73599046
-6.5524583 6.7869725 -0.72920859
-6.4540591 6.8092937 -0.72520113
-6.3378391 6.8532305 -0.72154039
-6.2379165 6.9134498 -0.71976787
6.4887319 7.3504796 -0.75787753
6.1360645 7.4894691 -0.74839824
6.2576499 7.4494867 -0.75202042
6.3161607 7.4261398 -0.75356179
5.9897575 7.5917521 -0.74747348
6.0733938 7.5537581 -0.7492075
6.2302842 7.5099959 -0.75425535
-6.765336 7.6382546 -0.78870434
5.8519974 7.6557617 -0.7448532
5.9314203 7.6134181 -0.74600917
-6.7734852 7.7426562 -0.795178
-6.6449528 7.7865157 -0.79124755
5.6418676 7.7688208 -0.74215579
5.7599983 7.7301903 -0.74516147
-6.7454052 7.8067045 -0.79749
5.3976245 7.8813715 -0.73837954
5.4713392 7.8333635 -0.73857224
5.5591326 7.8050466 -0.74069154
5.2590504 7.9374027 -0.73599052
5.3513966 7.9176464 -0.73868781
4.9735847 8.0866203 -0.7338326
5.124814 8.0531044 -0.73784006
3.4369245 8.38972 -0.70080936
3.5573354 8.3886738 -0.7043159
3.6455131 8.3812304 -0.70647377
3.7097757 8.3878832 -0.70893991
3.9591885 8.3889875 -0.71703196
3.3571494 8.4150276 -0.70030844
3.7983799 8.4477119 -0.71595305
3.8692067 8.4659595 -0.7194981
3.91856 8.4366331 -0.71903574
4.0610218 8.4697227 -0.72604883
3.1110747 8.5515261 -0.70339113
3.0830081 8.6390028 -0.70901698
3.0299244 8.7437611 -0.71529794
-3.8730593 8.9389 -0.75302231
0.71561283 9.0466709 -0.70146441
3.1687031 8.4664497 -0.69876707
3.2450378 8.433259 -0.69845879
3.3010874 8.4243288 -0.69938362
6.7528167 8.8938885 -0.61651188
6.8089147 9.0829563 -0.62670988
6.6298966 9.5579586 -0.64219987
6.7556696 9.5502462 -0.64583808
6.8783002 9.5363407 -0.64914554
6.6233435 9.8032398 -0.65316963
-7.0472584 10.524088 -0.69925368
-6.9660373 10.54214 -0.69759995
-6.8935862 10.572975 -0.69682819
-4.6256475 10.581553 -0.63756943
-3.7083669 10.534329 -0.61656702
-6.8226395 10.605837 -0.69622183
-6.7510147 10.637383 -0.69556034
-6.6797895 10.669298 -0.69495398
-4.7411799 10.667023 -0.64445996
-4.5740399 10.640925 -0.63944364
-4.4973907 10.642118 -0.63784504
-4.3623056 10.686338 -0.63723868
-3.6804707 10.66354 -0.62279606
-3.5567656 10.621176 -0.61838615
-5.4451017 10.790581 -0.66728151
-4.4469452 10.705475 -0.63999492
-3.4940498 10.761767 -0.62467027
-3.35935 10.796207 -0.62422931
-5.7313681 10.856294 -0.67775512
-5.3382664 10.825403 -0.66637194
-5.1683803 10.899308 -0.66595852
-4.3434854 10.829671 -0.64418435
-3.4415636 10.825824 -0.62715089
-5.1077399 10.944387 -0.66678536
-5.0113211 10.912006 -0.66292667
-4.9434495 10.94073 -0.66281641
-4.2257538 10.922198 -0.64655471
-4.1614933 10.955389 -0.64699572
-4.054801 10.977705 -0.64608616
-3.9284394 10.944613 -0.6419794
-3.3456776 10.989507 -0.63420683
-3.3311822 11.187823 -0.64445996
-3.2666583 11.222433 -0.64528686
-17.274233 12.477773 -0.60267198
-17.182825 12.572906 -0.60216308
-3.9592752 10.049759 -0.59633631
-15.342709 10.658373 -0.52834862
-15.273751 10.750011 -0.52823555
-17.326021 10.81586 -0.57765251
-17.308323 10.95297 -0.57929224
-17.300528 11.097283 -0.58129942
-17.230434 11.202139 -0.58124286
-17.226482 11.350551 -0.58344799
-17.237148 11.509881 -0.58619022
-17.297834 11.704498 -0.59068525
-17.266912 11.838678 -0.59209877
-15.369056 12.763742 -0.56501555
-15.37078 12.925356 -0.56798398
-15.361964 13.079692 -0.57061315
-15.316247 13.203729 -0.5719136
-15.158127 13.230412 -0.56902999
-15.183774 13.417827 -0.57307267
-11.223796 14.931555 -0.52829212
-10.658817 14.929155 -0.51879323
-10.544557 14.96241 -0.51769066
-10.417731 14.976771 -0.51596612
-10.135598 14.959493 -0.51104707
7.947762 13.455843 -0.44198206
7.0664244 13.629968 -0.43420765
7.0181208 13.742508 -0.43641275
7.8965249 13.751737 -0.4484843
7.9877987 13.715119 -0.44888008
6.7762456 13.894517 -0.43720433
6.8684721 13.867009 -0.43765667
6.9457936 13.809422 -0.43717608
7.2760792 13.826075 -0.44186899
7.3819699 13.820847 -0.44314116
7.4980726 13.833293 -0.44500703
7.6040068 13.825563 -0.44625092
7.7164598 13.828401 -0.44786233
7.8262782 13.825157 -0.44930413
8.276721 13.818443 -0.45555192
8.3836651 13.804137 -0.45676756
8.5143309 13.827339 -0.45925537
8.648241 13.853695 -0.46188453
8.7619476 13.845982 -0.46341115
8.9034081 13.880304 -0.46637955
9.0205545 13.874858 -0.46804753
9.1385183 13.869329 -0.46974376
9.2523117 13.856223 -0.47121382
9.3758106 13.856316 -0.4731645
5.8872871 13.982028 -0.42906243
5.978478 13.958506 -0.4294582
6.0959482 13.994874 -0.43171984
6.1881809 13.97183 -0.43217218
6.4053454 13.99573 -0.43531021
6.5521278 13.975025 -0.43652582
6.6904302 13.934933 -0.43717608
4.7451134 14.087363 -0.42041162
4.8363357 14.072163 -0.42083567
4.9351559 14.078069 -0.42190996
5.0231271 14.052229 -0.42205131
5.1270514 14.069981 -0.42352137
5.211895 14.034509 -0.4234083
5.306047 14.023767 -0.42405853
5.7967973 14.006805 -0.42872316
6.3078575 14.009249 -0.43451864
3.0892193 14.183677 -0.4105452
3.1827519 14.193716 -0.41139331
3.2666373 14.160283 -0.41099751
3.3673017 14.198331 -0.41269377
3.4560142 14.1842 -0.41289166
3.5456502 14.173394 -0.41320261
3.6400058 14.180418 -0.41405073
3.7345808 14.186816 -0.41489887
3.827548 14.185831 -0.41554907
3.9198449 14.181349 -0.41611448
4.0130472 14.179152 -0.41676471
4.1515484 14.169357 -0.41758457
4.2913318 14.162194 -0.4185175
4.3816972 14.147055 -0.41885674
4.4723401 14.132293 -0.41922426
4.5626593 14.115998 -0.4195635
4.6548262 14.104823 -0.42007238
-0.61735547 14.262938 -0.40376025
-0.35461751 14.267888 -0.40364718
-0.17956473 14.276163 -0.40378854
-0.00435432 14.2563 -0.40319484
0.0833131 14.289044 -0.40412778
0.17102334 14.291263 -0.40421259
0.25832969 14.268956 -0.4036189
0.34585327 14.266103 -0.40359062
0.43401942 14.284695 -0.40418431
0.52173346 14.28376 -0.40424085
0.6540314 14.296759 -0.40476388
1.7564253 14.27661 -0.40681347
-1.0663183 14.395791 -0.40825528
-0.88532901 14.338951 -0.4063046
-0.75493473 14.377871 -0.40719515
-0.53223944 14.331387 -0.40559784
-0.44342661 14.306407 -0.40480626
-0.26798123 14.318767 -0.40503243
-0.092260644 14.322976 -0.40508896
0.78681201 14.312658 -0.40539995
0.87571585 14.325521 -0.40590882
-1.5212876 14.488527 -0.41201526
-1.431671 14.490625 -0.41181737
-1.3406112 14.476245 -0.41116714
-1.249954 14.463284 -0.41057345
-1.1590266 14.443779 -0.40981016
-0.9787122 14.413033 -0.40856627
-3.7547941 14.590585 -0.426094
-3.5628896 14.584098 -0.42459565
-3.4657044 14.573593 -0.42366272
-3.373739 14.583872 -0.42335176
-3.2780499 14.576991 -0.42256019
-3.1789458 14.552884 -0.42128801
-3.0846152 14.548647 -0.4206095
-2.9904566 14.543801 -0.41993102
-2.8533912 14.554943 -0.41947868
-2.7165649 14.56592 -0.41905463
-2.6234171 14.561655 -0.41846097
-2.5275137 14.540054 -0.41738668
-2.4365985 14.54543 -0.41710398
-2.3407807 14.519647 -0.41594487
-2.252564 14.539662 -0.41611448
-1.9783525 14.5331 -0.41481405
-1.8868244 14.527122 -0.41430518
-1.7499894 14.518497 -0.41358429
-1.6151305 14.523626 -0.41328743
-4.5568724 14.6809 -0.43474481
-4.4635115 14.698063 -0.43443382
-4.3538899 14.660013 -0.43251142
-4.2652493 14.691253 -0.43265277
-4.1589293 14.660409 -0.43098482
-4.0550179 14.63556 -0.42951474
-3.9547 14.621569 -0.42838392
-3.8562374 14.612698 -0.42742273
-3.6622791 14.601714 -0.42575476
-8.372056 14.768226 -0.48011905
-8.2325201 14.732058 -0.477292
-5.702611 14.770026 -0.44777754
-5.5969954 14.765481 -0.44659016
-5.4738741 14.712418 -0.44396099
-5.3876109 14.756996 -0.44430026
-5.2780881 14.737076 -0.44271711
-5.1746445 14.732403 -0.44161454
-5.0740614 14.734577 -0.44073817
-4.9656549 14.712396 -0.43915501
-4.8674417 14.718862 -0.43844825
-4.763176 14.705657 -0.43717608
-4.6652999 14.710786 -0.43646932
-7.6004882 14.86045 -0.47206196
-7.4749856 14.838959 -0.46991339
-7.368247 14.853203 -0.46892393
-7.2497702 14.842447 -0.46717113
-7.1447001 14.857824 -0.46626648
-7.0298781 14.851691 -0.46471161
-6.9196229 14.853771 -0.46343943
-6.8104405 14.856876 -0.4622238
-6.6965494 14.848268 -0.46066892
-6.5891018 14.852529 -0.45953807
-6.4718609 14.833127 -0.45770049
-6.3618073 14.828465 -0.4563435
-6.248559 14.814722 -0.45473209
-6.1422272 14.815847 -0.45360127
-6.0353637 14.814376 -0.45241392
-5.9254065 14.803801 -0.45097211
-5.8223906 14.80918 -0.45003918
-15.815647 20.231276 -0.15238731
-15.64172 20.263821 -0.15190664
