# .PCD v0.7 - Point Cloud Data file format
VERSION 0.7
FIELDS x y z
SIZE 4 4 4
TYPE F F F
COUNT 1 1 1
WIDTH 624
HEIGHT 1
VIEWPOINT 0 0 0 1 0 0 0
POINTS 624
DATA ascii
-5.8663068 -22.903236 -0.14029957
-5.7225165 -22.926188 -0.14022243
-5.5819726 -22.961842 -0.14022836
-4.6040831 -20.005686 -0.12182083
-4.7198415 -19.947866 -0.12164281
-12.365294 -18.055252 -0.12986152
-12.308721 -17.507853 -0.12700129
-12.357902 -17.350548 -0.12640788
-12.410885 -17.200602 -0.12586787
15.676719 -11.606514 -0.11575026
15.773474 -11.528988 -0.11594015
15.913657 -11.482306 -0.11645048
16.013948 -11.40591 -0.11667004
16.13628 -11.197134 -0.11655136
16.188179 -11.086613 -0.11643268
-18.943396 -10.906276 -0.12971316
16.196249 -10.946757 -0.11600543
16.207375 -10.809997 -0.11560784
-19.014307 -10.792304 -0.12974283
-19.110714 -10.69252 -0.12995052
16.233303 -10.683958 -0.11532301
16.240685 -10.546573 -0.11491355
16.241943 -10.406263 -0.1144685
-18.840725 -10.239926 -0.12725052
16.277596 -10.288777 -0.11427268
-15.404537 -10.175151 -0.10955507
16.318357 -10.17495 -0.11411839
-18.785078 -10.060864 -0.12645535
-15.466681 -10.080439 -0.10955507
16.352373 -10.057343 -0.11392257
-15.529083 -9.9858885 -0.10956101
-15.590908 -9.8909512 -0.10956694
-18.814852 -9.7816133 -0.12583821
-18.658264 -8.9842539 -0.12288897
-18.685026 -8.8563223 -0.12270501
-18.713642 -8.7296696 -0.12253886
29.446579 -8.7090244 -0.18222389
-18.730501 -8.5979939 -0.12230149
29.458851 -8.320919 -0.18165421
-18.693159 -8.1676903 -0.12105533
-18.462309 -6.4956069 -0.11614191
-18.471567 -6.371767 -0.11595202
-18.498001 -6.2541442 -0.11587488
-18.530331 -6.138638 -0.11583927
-18.539114 -6.0155635 -0.11566125
0.97548962 -5.5115757 -0.15830104
1.0272108 -5.5077906 -0.15845653
3.9995124 -5.4589534 -0.19139175
4.0621033 -5.4387231 -0.19198543
1.2850504 -5.2601414 -0.15314166
1.3399124 -5.2737432 -0.15389085
3.7719123 -5.2830873 -0.18358907
3.9842689 -5.2332973 -0.18602034
4.012032 -5.2032108 -0.18582244
-3.8390465 -5.1137686 -0.18084683
-3.7473912 -5.1212096 -0.17947569
-3.6094408 -5.1957836 -0.17892443
-3.5509253 -5.1790848 -0.1775957
4.0622005 -5.1691856 -0.18593553
-3.8752971 -5.0643053 -0.18035209
-3.717566 -5.0806308 -0.17804804
-17.919331 -4.6214304 -0.10981618
18.771957 -4.3201542 -0.11430828
18.865448 -4.2199521 -0.11471773
-17.103445 -4.1878562 -0.10449331
-17.110338 -4.0784268 -0.10438056
18.820627 -4.0888314 -0.11429048
18.858082 -3.975955 -0.11436762
-16.485292 -3.8226962 -0.10042252
18.930037 -3.6285422 -0.11437949
-17.548925 -3.5058248 -0.10619638
-17.458527 -3.599303 -0.105781
18.938179 -3.5097704 -0.11429641
18.949514 -3.3917398 -0.11423707
-16.904453 -3.2693424 -0.10217308
18.959129 -3.2735324 -0.1141718
0.35364532 -3.102396 -0.17239255
0.41129184 -3.149421 -0.17535089
18.967022 -3.1551707 -0.11410058
0.33488354 -3.075479 -0.17080313
18.987011 -3.0388899 -0.11410652
-0.10442541 -2.9146886 -0.16101852
-0.077257894 -2.9030361 -0.16032948
0.16387056 -2.9105814 -0.16094503
0.23784697 -2.937588 -0.16271636
18.986521 -2.9194431 -0.11399377
-0.032535151 -2.8853862 -0.15930967
0.0407844 -2.8174565 -0.15557222
0.11836172 -2.893157 -0.15986091
19.003088 -2.8027432 -0.11398784
31.252996 -2.8585114 -0.18623532
-16.955324 -2.7425568 -0.10192385
0.071466796 -2.7968268 -0.15445872
-17.006416 -2.6438458 -0.10213154
19.016956 -2.6856701 -0.11397003
31.264965 -2.6662681 -0.18620566
-16.997593 -2.535758 -0.10198318
19.01425 -2.5663922 -0.11385729
-16.998972 -2.4294343 -0.10190011
19.024679 -2.4490364 -0.11382762
31.272762 -2.4737489 -0.18615818
-16.94916 -2.3162839 -0.10151439
19.037363 -2.3320138 -0.11381575
19.040388 -2.2138884 -0.11375047
-16.770685 -2.1871545 -0.10036318
1.6142026 -2.0127387 -0.14244159
19.045662 -2.0961421 -0.11370301
1.6176634 -1.9433235 -0.16756462
19.099939 -1.9835789 -0.11395223
-17.782942 -1.8766135 -0.10611331
1.6494986 -1.8393081 -0.16365398
19.09284 -1.8645 -0.11383948
-17.810043 -1.7690456 -0.10620825
1.6917052 -1.7955282 -0.16349307
1.7432665 -1.7614315 -0.16421321
1.8302639 -1.7446849 -0.18153849
-17.870346 -1.6643685 -0.10650495
-17.769642 -1.5450718 -0.10584627
31.346912 -1.513926 -0.18623532
-18.006042 -1.454366 -0.10719924
-18.023603 -1.3445251 -0.10725265
-17.834976 -1.2204598 -0.10608364
2.1440153 -1.243786 -0.15685001
-18.022776 -1.1222521 -0.10715771
2.1716018 -1.1689284 -0.17015947
2.2051585 -1.1416723 -0.16438611
2.1864052 -1.0535842 -0.15194835
2.2015424 -1.0308537 -0.17454277
-19.426432 -0.97050393 -0.11542389
2.2451825 -0.95064408 -0.16487059
2.3135948 -0.91429222 -0.13734257
-19.510944 -0.85474479 -0.11589268
2.3391929 -0.86537409 -0.15967134
-19.505829 -0.73463547 -0.11583334
-18.111687 -0.5708636 -0.10753155
20.990728 -0.49788144 -0.12459798
-30.065891 -0.39391193 -0.178432
20.997387 -0.36914572 -0.12462172
-30.079742 -0.20950724 -0.17850322
21.016254 -0.24049574 -0.1247226
21.020334 -0.11155382 -0.1247404
-30.071461 -0.024930011 -0.17844981
-0.20571192 0.0812001 -0.16282617
21.030624 0.017434925 -0.12479974
-2.405252 0.13096114 -0.18619403
-2.3291943 0.16748442 -0.15092765
-2.2849469 0.18778351 -0.17721573
21.03212 0.14649001 -0.12481161
-2.2618015 0.2486368 -0.15060762
21.039825 0.27565581 -0.12486502
-30.054504 0.34392333 -0.17836079
-18.583801 0.32671356 -0.11029684
-2.2325761 0.33974722 -0.14761347
-2.1914437 0.38748097 -0.15562595
-18.580448 0.44071177 -0.1102909
-2.1750085 0.44454637 -0.14708817
21.037737 0.40474856 -0.12486502
-18.576395 0.55468112 -0.11028497
-2.2347429 0.51430088 -0.17725424
-2.1859274 0.50972766 -0.12391977
21.046854 0.53413051 -0.12493622
-18.572641 0.66865325 -0.11028497
21.046179 0.66335601 -0.12495403
-18.559196 0.78222126 -0.11023156
1.1524929 0.78220963 -0.14220385
1.2551026 0.77900374 -0.15215926
1.3396066 0.76047611 -0.16242225
1.4200162 0.76116669 -0.16905491
21.047709 0.79270625 -0.12498963
-18.549053 0.89584243 -0.1102019
0.99058616 0.89535689 -0.16963077
1.0543598 0.86021763 -0.14121516
1.1110735 0.8157289 -0.1476277
0.94927239 0.94313419 -0.13994448
1.0173156 0.92042559 -0.11733071
21.057432 0.92249417 -0.12507865
0.93335015 1.0173799 -0.12985836
21.06336 1.0522815 -0.12514985
21.065495 1.1820083 -0.12520325
21.077805 1.3124844 -0.12532194
21.081327 1.4426099 -0.12539315
21.090029 1.5732744 -0.12549996
-29.763391 1.620557 -0.17688321
21.077984 1.7024897 -0.12548809
-29.778839 1.804724 -0.17703749
21.08308 1.8331757 -0.12558304
-29.750244 1.986277 -0.17693661
19.075741 2.013041 -0.11382762
18.187592 2.1453006 -0.10867684
18.874208 2.1089513 -0.11270014
17.458845 2.276901 -0.10448144
17.910118 2.2240777 -0.10709836
17.172083 2.3467488 -0.10284956
17.072227 2.4399035 -0.10233923
4.8334174 2.5284085 -0.1542725
17.042099 2.5423975 -0.10225022
16.997524 2.6424632 -0.10207813
17.013565 2.7519777 -0.10227396
17.005236 2.8578107 -0.10232736
17.005112 2.9651909 -0.10243417
17.02104 3.0757003 -0.10264187
17.035267 3.1863325 -0.10284363
17.021286 3.2919381 -0.10287923
-16.331081 4.3971963 -0.10036318
-16.278728 4.4904051 -0.10020889
22.253872 4.4457526 -0.13466813
-16.232586 4.5850406 -0.10009614
-4.8099246 4.5766292 -0.18777311
22.273186 4.591908 -0.13495296
-4.7512116 4.6331387 -0.18768831
-4.6770697 4.6742139 -0.18700981
22.252415 4.7301507 -0.13500044
22.240557 4.87045 -0.13510725
22.245371 5.0147405 -0.13532087
22.253147 5.1601768 -0.13555823
22.233711 5.2996364 -0.13563538
22.222143 5.4411926 -0.13576593
22.248592 5.7379556 -0.13634747
22.227467 5.8781977 -0.13643648
1.1282977 5.9683285 -0.1717861
0.78603512 6.0809569 -0.17341167
0.83630437 6.0328455 -0.17225257
1.0852331 6.0449018 -0.17369437
1.1986526 6.0356674 -0.17403361
1.2599635 6.0522394 -0.17483933
0.94461811 6.1219578 -0.17519271
1.0213375 6.1198802 -0.17547542
0.5790773 6.2948937 -0.17878307
0.67402947 6.2708282 -0.17837316
22.356001 6.2066965 -0.13768265
0.42656609 6.3391242 -0.17968774
0.54172355 6.3132672 -0.17920713
0.61944932 6.3091288 -0.17929195
22.357897 6.355237 -0.13793187
-16.444559 6.6777563 -0.10532407
-16.077963 6.6441002 -0.10323527
-15.840546 6.6600742 -0.10197131
22.378862 6.65907 -0.13855495
-17.256144 6.7618489 -0.10998233
-15.746056 6.7343378 -0.10162714
-17.072224 6.8109107 -0.10907441
-15.691601 6.825243 -0.10154406
22.365324 6.8046999 -0.13872704
22.305008 6.936161 -0.1386143
17.967865 7.0751266 -0.11459312
17.918547 7.1830101 -0.11455751
22.343765 7.2500949 -0.13939759
17.82905 7.4023571 -0.11455751
-29.424601 7.5366521 -0.18024783
-29.383606 7.7185807 -0.18028344
-15.587528 8.3151007 -0.10483748
-15.552043 8.4191561 -0.1049443
-15.518497 8.5245333 -0.10506891
-15.496471 8.636632 -0.1052766
-15.481487 8.7532091 -0.1055377
-15.46392 8.8689318 -0.10578693
-15.447243 8.9857731 -0.10604803
-15.423683 9.0991869 -0.10626759
-15.38644 9.2049475 -0.10639814
-15.353609 9.3137054 -0.1065643
-29.35363 9.670146 -0.18339883
-29.286665 10.04813 -0.18373707
-29.242393 10.233916 -0.18384983
-29.180933 10.413824 -0.18386169
-29.155954 10.607038 -0.18411092
-29.051657 10.974628 -0.18428895
-17.327742 12.341659 -0.12624173
-17.313038 12.654271 -0.12725645
-17.282486 12.79537 -0.12760657
-17.258051 12.941968 -0.12801008
-17.218927 13.078465 -0.12831272
-17.197008 13.228991 -0.12875184
-17.139177 13.352697 -0.12892987
-17.090681 13.484244 -0.12918504
-17.118559 13.677494 -0.13002767
9.8273802 13.797686 -0.1005234
10.471602 13.786768 -0.10273682
10.570023 13.740486 -0.1028733
9.9715385 13.81984 -0.10112868
10.255218 13.851545 -0.10227396
10.374212 13.833961 -0.1026122
-17.148333 14.404787 -0.13289976
-17.153645 14.772052 -0.13433582
-7.9689035 14.879086 -0.10016142
-11.375804 14.925783 -0.11136498
-11.115452 14.961513 -0.11060541
-10.992686 14.987504 -0.11029684
-8.8353319 14.919851 -0.10289703
-10.883511 15.031183 -0.11012475
-10.731766 15.014699 -0.10951947
-10.327268 15.025916 -0.10819617
-10.212422 15.055898 -0.10795881
-17.033173 15.22323 -0.13556418
-16.963171 15.348927 -0.13575406
-16.893005 15.475013 -0.13594988
-4.4939814 -15.910205 -0.098108225
-4.3981347 -15.944228 -0.098149769
3.6519632 -13.639751 -0.083792247
-3.4453003 -13.115798 -0.080472127
-3.5262325 -13.096343 -0.080483995
-3.2879839 -10.871467 -0.067399338
-3.3609595 -10.754818 -0.066865265
-3.4691706 -10.640495 -0.066414282
-3.7515848 -10.512444 -0.066236258
-3.6448321 -10.518132 -0.066058233
-3.5504377 -10.558866 -0.066105708
-3.8384366 -10.451164 -0.066070102
-3.912291 -10.356482 -0.065696254
-3.9491892 -10.263219 -0.065257132
-4.0640917 -10.187049 -0.065085046
-3.9752405 -10.144758 -0.064657792
-4.0528359 -9.8074007 -0.062972508
-4.51402 -9.7186546 -0.063589655
-3.9733949 -9.784832 -0.062669873
-4.1603389 -9.645812 -0.062337562
-4.0664282 -9.67173 -0.062260419
-4.4997315 -9.5343256 -0.062563054
-4.3399453 -9.5734835 -0.062376134
-4.23527 -9.5760365 -0.062135804
-4.9068298 -9.3358622 -0.062586792
-4.8457751 -9.3586903 -0.062539324
-4.7487984 -9.3818836 -0.062399872
-4.1841755 -8.726573 -0.057430074
-4.2623081 -8.6836147 -0.057403371
10.425872 -7.8184557 -0.077332996
1.3862412 -7.4113383 -0.044743001
-4.1851101 -6.7119861 -0.046938613
-3.998805 -6.7782211 -0.046701249
-4.0583444 -6.6901655 -0.046434216
-4.1739068 -6.5588613 -0.046134546
-3.9340498 -6.5759225 -0.045472894
-3.758719 -6.5072837 -0.044594649
-3.6555593 -6.5119448 -0.044315748
-4.2120938 -6.4862103 -0.045894213
-3.5116065 -6.4396 -0.043526512
-4.2083821 -6.3942542 -0.045425419
-3.8855772 -6.3176141 -0.044013109
-4.1282401 -6.1894498 -0.044149593
-4.5992069 -6.0552526 -0.045122784
-4.0636668 -6.0123882 -0.043063655
-4.4282455 -5.9429398 -0.043980472
-4.3418102 -5.9402814 -0.043662999
0.98045665 -5.5225163 -0.033284284
4.003171 -5.5287666 -0.040506065
0.92343545 -5.4948487 -0.033064723
4.0593228 -5.4639144 -0.040393319
4.1334047 -5.4232917 -0.040464524
7.4998598 -5.2727013 -0.054403692
-3.9092607 -5.0178261 -0.037746716
-3.9412148 -4.9953151 -0.037758581
-16.256758 -3.6647365 -0.098891526
-16.326916 -3.4705789 -0.099051744
0.3715823 -3.1049817 -0.065111049
0.32798976 -3.0776105 -0.046178479
-15.553982 -2.9092679 -0.093900964
-0.13940352 -2.9547343 -0.046678793
-0.067409299 -2.9459076 -0.039188631
0.091767877 -2.9115031 -0.01728599
0.15034072 -2.9262474 -0.053096116
0.24606605 -2.941988 -0.05054561
-15.560715 -2.8118198 -0.093835689
-0.029740155 -2.8841805 -0.065435126
0.041177571 -2.8522899 -0.051433846
-15.602304 -2.7205825 -0.093984038
-15.685761 -2.6360669 -0.094387554
-16.546616 -2.0547581 -0.098944932
1.5964315 -2.0165215 -0.015262467
1.6113815 -2.0110166 -0.044042159
-16.59367 -1.9572911 -0.099152625
1.6218722 -1.9617921 -0.043643039
-16.65307 -1.8607676 -0.09943746
1.645601 -1.8475776 -0.042373955
1.6924807 -1.7976077 -0.04225095
1.7483482 -1.7728074 -0.044732746
1.8351196 -1.7620987 -0.037775867
2.1545327 -1.3069685 -0.014953895
2.1441305 -1.239284 -0.04237834
2.1715536 -1.1507198 -0.042137656
2.1859505 -1.0558604 -0.04603095
2.221277 -1.0151657 -0.014493014
2.2406118 -0.96226496 -0.048887253
2.3451905 -0.93541497 -0.014983565
2.4144232 -0.91207868 -0.015315874
2.2701569 -0.84242916 -0.032576587
2.3200684 -0.85460049 -0.061912812
2.2482626 -0.75630498 -0.023112737
2.330703 -0.76871902 -0.051267017
-2.3318312 0.16452459 -0.043688409
-2.2777991 0.18837827 -0.064640656
-2.2547529 0.25236508 -0.040301163
-2.2176011 0.31312913 -0.013290372
-2.1812186 0.35547796 -0.041889533
-2.2016029 0.47830409 -0.013369493
-2.1694009 0.43025789 -0.037789095
1.1687055 0.78469467 -0.050638583
1.2433143 0.75490898 -0.033871721
1.3226556 0.74142164 -0.058648843
1.046056 0.85409868 -0.040239342
1.1263537 0.81225812 -0.033720136
0.96439588 0.96954364 -0.042054344
1.0117637 0.93232578 -0.042713985
0.93736655 1.0247123 -0.039351456
-8.2659082 2.4446981 -0.051151812
-8.3117151 2.5695777 -0.051626541
-8.3252935 2.6579967 -0.051860936
-6.3592315 3.0012436 -0.041728485
-7.0126109 3.1015232 -0.045502562
-6.9404774 3.1463008 -0.045220695
-6.9044528 3.2069087 -0.045176189
-6.7951488 3.2581055 -0.044719264
-6.7331505 3.356369 -0.044645086
-6.7318516 3.4334266 -0.044843879
-6.7967944 3.5192678 -0.045419488
-16.251101 3.6351576 -0.098820314
-6.9344025 3.6446483 -0.046487622
9.0634499 3.6979759 -0.058088757
-16.229465 3.7350283 -0.098826252
-16.219866 3.8377635 -0.098909326
-16.1999 3.9381595 -0.098933063
-16.204536 4.0447512 -0.099111088
-4.6621895 4.5976939 -0.038856387
-4.8126531 4.6309657 -0.039633755
-4.7984734 4.6743641 -0.039752435
-4.6239834 4.616323 -0.038773309
-4.597681 4.6467404 -0.038791113
-4.594245 4.7006092 -0.039004739
0.79117167 5.8617439 -0.035100114
0.84628111 5.9924307 -0.035913084
0.8855145 6.003943 -0.036013961
0.93707889 6.0942683 -0.036589567
1.0278754 6.1789799 -0.037171107
0.12885551 6.240531 -0.037040558
0.22558278 6.2658305 -0.037206713
0.32496053 6.325017 -0.03758353
-6.8140335 6.4371505 -0.055626113
-6.1842422 6.4847393 -0.053175334
-3.7491608 6.4660234 -0.04435432
-3.6803613 6.4842057 -0.044244539
-6.3662996 6.5941515 -0.054391824
-6.1450219 6.5232911 -0.053181268
-6.0684137 6.5619087 -0.05303885
-3.6473413 6.5188837 -0.044327613
-3.571341 6.5231915 -0.044131793
-6.0232363 6.6345553 -0.053175334
-5.9784083 6.6669211 -0.053139731
-3.3528094 6.647161 -0.044179264
-5.944448 6.7532172 -0.053388961
-5.9135203 6.8439336 -0.0536738
-5.8454504 6.8496633 -0.053436436
-5.7346549 6.8463817 -0.052997313
-5.637732 6.857995 -0.052682806
-5.5760078 6.8683915 -0.052498851
7.0460992 8.3881044 -0.065007903
7.1214061 8.3728962 -0.065227464
3.3512836 8.4758072 -0.054086216
3.4561965 8.4368134 -0.054104019
6.8590589 8.4775095 -0.064711198
6.9434385 8.4220839 -0.0647735
6.7638011 8.5728178 -0.06480021
6.8069124 8.5194359 -0.064711198
6.7221341 8.6283579 -0.064907022
1.076763 8.7901402 -0.052552257
1.1327208 8.7992363 -0.052647203
0.59134656 8.8571253 -0.052676871
0.6710453 8.8278351 -0.052537419
0.75138813 8.8108635 -0.052475113
0.80570966 8.8090744 -0.052492917
1.0325089 8.8800182 -0.053050719
-1.4077544 9.4364033 -0.056617104
-1.3498272 9.4448633 -0.056617104
-6.8440356 10.64318 -0.075089909
-6.794672 10.710305 -0.075267933
-6.6525507 10.702659 -0.074781343
-6.5370932 10.73619 -0.07459145
-6.4942603 10.814676 -0.074858479
8.3779593 11.46237 -0.084252141
2.5015383 13.497913 -0.081463121
2.4193742 13.516946 -0.081486858
2.5882661 13.502934 -0.081587732
7.5231199 13.695473 -0.092726015
8.0712852 13.681327 -0.094262943
6.9286461 13.793317 -0.091598533
7.0195103 13.763016 -0.091681615
7.1176205 13.746325 -0.091859639
7.2190461 13.735145 -0.0920792
7.3182483 13.718824 -0.092269085
7.427043 13.719391 -0.092577659
7.647418 13.721553 -0.093218543
7.7570605 13.719636 -0.093527116
7.8674645 13.717755 -0.09384162
7.9751191 13.709849 -0.094120525
8.1966648 13.701055 -0.094743602
9.681572 13.771012 -0.09989439
2.214886 13.838628 -0.083166204
6.7540426 13.867414 -0.091533259
6.8403344 13.828401 -0.091551065
8.4226856 13.884766 -0.096369542
8.5381069 13.882226 -0.096713714
8.6395273 13.855881 -0.096897677
8.766057 13.868541 -0.097360529
8.891448 13.877642 -0.097805589
9.0052967 13.867272 -0.098120093
9.1259499 13.866051 -0.09850581
9.2397118 13.853054 -0.098814383
9.3536568 13.839181 -0.099122956
9.4677782 13.82443 -0.09943153
9.5849199 13.812905 -0.099769771
6.5953097 13.974574 -0.091699414
6.679635 13.931137 -0.091681615
5.2266979 14.096983 -0.089218967
5.3183975 14.078679 -0.089307979
5.4097104 14.058846 -0.089391053
5.9194198 14.078949 -0.090631276
6.010807 14.054316 -0.09070842
6.1172714 14.063936 -0.091011062
6.2058778 14.031624 -0.091046669
6.3181024 14.051651 -0.091426447
6.4195828 14.04627 -0.091646008
6.5094395 14.014779 -0.091699414
2.8113353 14.19503 -0.085872144
3.5432136 14.19522 -0.086821601
3.6339688 14.187743 -0.086910605
3.7290847 14.196128 -0.087100498
3.8210602 14.191325 -0.087213248
3.9149783 14.192677 -0.087367535
4.0096002 14.195333 -0.08753369
4.1507587 14.194223 -0.087759182
4.2936587 14.196654 -0.088014349
4.3860035 14.187239 -0.088121161
4.4780927 14.17627 -0.088222042
4.5692911 14.161849 -0.088305116
4.6611066 14.148742 -0.088400066
4.7516584 14.131249 -0.088471271
4.8473635 14.128312 -0.088637426
4.9405684 14.11718 -0.088756107
5.0348272 14.108261 -0.088892594
5.1322389 14.107174 -0.089082487
0.60258323 14.297055 -0.084916756
2.9509282 14.21205 -0.086136207
3.0887024 14.217098 -0.086335003
3.1804626 14.218372 -0.086459622
3.270112 14.209309 -0.086524896
3.3611515 14.20552 -0.08662577
3.4525034 14.202119 -0.086732589
0.42798638 14.33336 -0.08509478
0.86782092 14.319475 -0.085130386
1.3996384 14.332569 -0.085456759
1.4874518 14.322717 -0.085450821
1.5756346 14.316302 -0.085468628
-1.2606061 14.498043 -0.086358741
-1.1695307 14.479589 -0.086204454
-1.0793991 14.469541 -0.086103573
-0.94511569 14.462328 -0.086005658
-0.81119859 14.457005 -0.085925549
-0.72222733 14.456717 -0.085895881
-0.63346523 14.459877 -0.085889943
-0.54465389 14.461493 -0.085878074
-0.45590961 14.464562 -0.085878074
-0.36722425 14.470087 -0.085895881
-0.27837282 14.469069 -0.085878074
-0.14514002 14.46545 -0.085845441
-0.012001589 14.476741 -0.08590775
0.076842166 14.479542 -0.085925549
-3.479995 14.599719 -0.08906468
-3.3837965 14.592547 -0.088892594
-3.2904563 14.596452 -0.088791713
-3.1497631 14.597208 -0.088616654
-1.989158 14.555451 -0.087177642
-1.8536686 14.562168 -0.087112367
-1.7184428 14.568744 -0.087053023
-1.6259091 14.551188 -0.086886875
-1.5369089 14.563873 -0.086904675
-1.4431688 14.529245 -0.086643577
-1.3512098 14.507957 -0.086465552
0.16597158 14.503796 -0.086073905
-4.1692915 14.667681 -0.090488859
-4.0677109 14.651554 -0.090233698
-3.9677937 14.639562 -0.090008199
-3.8707337 14.636562 -0.089842044
-3.7701144 14.618401 -0.089586884
-3.6730332 14.612164 -0.08940886
-3.575933 14.604317 -0.089224905
-3.0107265 14.603618 -0.08848314
-2.9187129 14.610048 -0.088411935
-2.8257842 14.610992 -0.088311054
-2.7340574 14.617244 -0.088245779
-2.6414711 14.617999 -0.088150829
-2.5510399 14.629992 -0.088127099
-2.4579093 14.625646 -0.088008411
-2.3678026 14.638477 -0.087996542
-2.2737904 14.626052 -0.087836325
-5.822114 14.785736 -0.094298542
-5.7157722 14.781076 -0.094043382
-5.6118374 14.78128 -0.09382382
-5.5032268 14.767646 -0.093521178
-5.3977427 14.760752 -0.09326601
-5.2969408 14.765356 -0.093087994
-5.1949587 14.765508 -0.092886232
-5.0902395 14.756456 -0.092631064
-4.9893508 14.757098 -0.092441179
-4.886445 14.750413 -0.092209749
-4.7810321 14.734463 -0.091924913
-4.682055 14.736836 -0.091758758
-4.5805564 14.729957 -0.091539197
-4.4778638 14.717605 -0.09128996
-4.3763514 14.707423 -0.091058537
-4.2768087 14.702313 -0.090862706
-7.855989 14.88702 -0.099888451
-7.7428164 14.893243 -0.099609554
-7.6280413 14.895079 -0.099306911
-7.3917432 14.880991 -0.098600753
-7.2796464 14.883846 -0.098321855
-7.1582494 14.866066 -0.097912401
-7.0557623 14.886214 -0.097758114
-6.9452658 14.888447 -0.097491086
-6.8262477 14.8708 -0.097099431
-6.7052393 14.846788 -0.096672177
-6.6002111 14.856581 -0.096470423
-6.4784999 14.827158 -0.096019432
-6.3645048 14.813341 -0.095675252
-6.2540369 14.806055 -0.095378548
-6.1496506 14.811827 -0.095170856
-6.0412741 14.806691 -0.094897889
-5.9357967 14.807281 -0.094666459
