# .PCD v0.7 - Point Cloud Data file format
VERSION 0.7
FIELDS x y z
SIZE 4 4 4
TYPE F F F
COUNT 1 1 1
WIDTH 292
HEIGHT 1
VIEWPOINT 0 0 0 1 0 0 0
POINTS 292
DATA ascii
-3.2412047 -13.004597 -1.4062865
-3.3588061 -12.96695 -1.4055037
-4.4957948 -10.703407 -1.2181346
-4.0492759 -10.730433 -1.2034205
-3.9995937 -10.79891 -1.2083253
-4.3806992 -10.611284 -1.2045685
-4.235424 -10.627288 -1.2003943
-4.1319909 -10.651873 -1.1988289
-4.299057 -10.597414 -1.1999768
-4.2349038 -9.664381 -1.1071532
-2.2314582 -9.4457159 -1.0183994
-2.1681132 -9.4359674 -1.0158948
-3.9086349 -8.7010412 -1.0008677
-18.496105 -6.8963294 -1.0898104
-18.501501 -6.7693295 -1.0876606
-18.478636 -6.5049763 -1.0815418
-18.433168 -6.2358093 -1.0743204
-18.433172 -6.1100221 -1.0721154
-18.42853 -5.9832363 -1.06969
-18.421434 -5.732017 -1.0651146
-18.418051 -5.607245 -1.0629097
-18.415745 -5.4833012 -1.060815
-18.412613 -5.3595967 -1.0587202
-18.41634 -5.2383232 -1.0570664
-4.0296092 -8.6143494 -0.99789357
-3.9532752 -8.657896 -0.99867624
-4.138917 -8.5723076 -0.99883282
-4.0468645 -6.7228336 -0.82336009
-3.9711533 -6.7367225 -0.82054245
-4.1038547 -6.6777368 -0.82242084
-15.172379 -4.2151599 -0.86936772
-15.212412 -4.125905 -0.87019461
-15.318523 -4.0539432 -0.87482506
16.085463 -11.321313 -0.55630827
16.143953 -11.214987 -0.55594075
16.191029 -11.101022 -0.5552057
16.229034 -10.9813 -0.55418795
16.242905 -10.845988 -0.55237865
16.249052 -10.70652 -0.55034316
16.249071 -10.564118 -0.54813802
16.26226 -10.431295 -0.54641354
16.293861 -10.311004 -0.54533929
16.309338 -10.18119 -0.54375613
16.332348 -10.056816 -0.54245567
16.368116 -9.9408464 -0.54160756
1.1437956 -7.3574123 -0.57553685
-17.836988 -1.762291 -0.50691956
-17.969893 -1.6641498 -0.51039684
-17.995016 -1.0002688 -0.50971836
-18.003809 -0.8899827 -0.50980318
-17.983965 -0.77841604 -0.50909638
-17.996393 -0.66835064 -0.50932258
-19.214087 -0.59553999 -0.54367131
-18.290239 -0.23005356 -0.51732314
1.2506969 -5.3191133 -0.42236605
1.1806937 -5.2375526 -0.41500616
-3.7329895 -5.1073189 -0.48899055
1.0941504 -5.1472969 -0.40675998
1.1382968 -5.1979494 -0.41130692
-3.9416213 -5.0274696 -0.49380723
-3.7785218 -5.0387759 -0.48683265
1.0306759 -5.0779772 -0.40051752
1.4676166 -5.0452008 -0.40614343
-4.0148435 -4.9621782 -0.49338335
-3.9544475 -4.9493308 -0.48968413
-3.8286333 -4.9770265 -0.48536837
-4.7578788 -3.9604676 -0.4785094
-4.6691051 -3.9599118 -0.4732303
10.383421 -7.7951188 -0.36720642
4.0947371 -5.5095491 -0.37898061
3.8842437 -5.2938666 -0.3624984
3.9685969 -5.2384081 -0.36282915
4.0680966 -5.2350554 -0.36602634
4.0702653 -5.1394839 -0.36194715
0.84568733 -5.0322127 -0.39442924
0.9791525 -5.0628028 -0.39859086
0.88390356 -4.979043 -0.39088416
0.93450445 -4.9961934 -0.39288789
1.2326629 -4.9680686 -0.39566231
1.397377 -4.9160099 -0.39504579
1.2770052 -4.88939 -0.39061442
1.3378311 -4.8767166 -0.39088416
1.4359878 -4.8258653 -0.38918868
1.5063508 -4.844058 -0.39211723
1.4574459 -4.7902551 -0.38703081
1.5327635 -4.7734718 -0.38753176
7.2918606 -5.404561 -0.25669676
7.3160114 -5.3532243 -0.25638577
7.3409629 -5.2684679 -0.25555182
1.1862473 -4.7156816 -0.26845607
1.2201504 -4.7276497 -0.26955858
0.35636076 -3.1029634 -0.24143183
0.45110416 -3.1564169 -0.24646048
0.41365075 -3.0976665 -0.24156672
-0.052460004 -2.9829352 -0.23061033
0.16338773 -2.911351 -0.22539549
0.24615633 -2.9347477 -0.22765611
-0.015264783 -2.8763795 -0.22233848
0.049560849 -2.8640461 -0.24764927
0.11805347 -2.8979311 -0.22418809
1.6406078 -1.9507879 0.052949905
1.6128489 -1.8475207 0.050943725
1.9492786 -1.8339988 0.055595741
1.5228519 -1.7229744 0.047766231
1.7794857 -1.7693938 0.052127495
1.8205876 -1.7554926 0.052535933
1.4989522 -1.6849258 0.072544634
1.5362512 -1.6572739 0.079692893
1.6345087 -1.6859326 0.048778668
2.1457136 -1.242503 0.05150792
2.1611769 -1.1473147 0.0508295
2.1875134 -1.0849223 0.0507222
2.2262623 -1.02845 0.050943729
2.2753079 -0.97591066 0.051428307
2.3281264 -0.93150842 0.052090116
2.2586677 -0.82450366 0.049946863
2.3746576 -0.89989948 0.052750535
2.1750844 -0.73304403 0.099814937
2.220715 -0.73746634 0.048609409
2.2105255 -0.68592376 0.048077751
-2.3141572 0.15691049 0.048181593
-2.2691522 0.18886545 0.047298953
-2.2327588 0.25347114 0.068130486
-2.1992643 0.29918456 0.046104796
-2.2103767 0.34838787 0.097316854
-2.1864452 0.3522701 0.046006892
-2.2256999 0.43201986 0.08571317
-2.1865556 0.41456866 0.046229407
2.1425319 -1.229897 0.13638017
2.1629517 -1.1506668 0.12100422
2.1835821 -1.0744697 0.12710629
2.2287347 -1.0301244 0.14556155
2.2755353 -0.9841041 0.1295651
2.3534873 -0.94528049 0.15294617
2.2287738 -0.83611107 0.10351862
2.4043288 -0.89574456 0.17896585
2.1965978 -0.7704618 0.1012269
2.2087173 -0.76727158 0.10168307
-2.4258854 0.15291074 0.12180004
-2.3652413 0.16615711 0.15488724
-2.3376532 0.21330333 0.1267345
-2.2620084 0.25948229 0.15882176
-2.2276142 0.35307607 0.15733443
1.1360259 0.78348851 0.15678549
1.2593794 0.75943708 0.13827197
1.3334734 0.72583896 0.14936668
0.98694611 0.87713993 0.16164824
1.0541198 0.84152263 0.15927112
1.1044183 0.80560482 0.19601625
1.2187014 0.80694091 0.17429066
0.97648132 0.94984013 0.1569505
0.96790993 1.0081741 0.1666536
-16.933924 6.6560507 0.3779555
-16.66535 6.6688275 0.37286735
-16.357449 6.6623454 0.3668862
-15.805553 6.6648479 0.35631531
-16.258076 6.738471 0.36557782
-15.68718 6.7285981 0.35457081
-15.653846 6.8283238 0.35475773
-4.8523712 4.7417455 0.47322968
-5.0715771 4.8954806 0.49166903
-6.2512636 5.6742668 0.58887559
-6.1634431 5.6639171 0.58386564
-6.1650925 5.7356033 0.58734477
-6.1719027 5.8129935 0.59138054
31.18325 -2.6921947 0.65016073
-6.3195019 6.025609 0.60905445
-6.2826934 6.2152767 0.61643022
-6.3001237 6.3094769 0.6219272
-6.2830071 6.3700323 0.62408423
-6.1566329 6.3970594 0.61928308
-6.2431068 6.4077497 0.62401468
-6.1200147 6.4376073 0.61956143
-6.0988369 6.4946723 0.62144011
-6.0486951 6.5210013 0.62039638
-5.9481354 6.5725474 0.6183089
-5.8016672 6.571012 0.61142027
-5.7553382 6.59972 0.61079401
-5.9057007 6.6066895 0.61810017
-5.6664495 6.6197767 0.60780197
-5.7137384 6.8007765 0.61956143
-5.8884845 7.0967293 0.64321941
-5.787291 7.0625105 0.63688743
-6.5140009 7.1096406 0.67258316
-15.324345 9.3105946 0.77975124
19.89332 1.8387721 0.86877012
19.867744 1.9594278 0.86816186
19.824545 2.0780685 0.86681509
19.910669 2.3344522 0.87176782
21.028753 0.77729112 0.91508251
21.037561 0.90690887 0.91569072
21.048565 1.0368115 0.91642928
21.052778 1.1665515 0.91690719
21.054199 1.2962595 0.9172982
21.05781 1.4262314 0.91781956
21.058626 1.5561491 0.91825396
20.937145 1.6764024 0.91338813
-1.4469876 8.2421246 0.99784952
-1.3712687 8.2566099 0.99802715
-1.5264466 8.2485218 1.0002768
-1.5999908 8.3589582 1.0148405
-1.3282582 8.3129148 1.0038289
-1.2844573 8.3680191 1.0095123
3.3662157 8.3909111 1.0780683
3.4417834 8.3558578 1.0775946
-1.1858301 8.4126482 1.0130644
-1.0840229 8.438385 1.0144852
-0.98176241 8.4628887 1.0159061
3.3143027 8.4104843 1.0779498
-1.7513103 8.5780268 1.0439678
-1.0459596 8.5572395 1.0279833
-1.880026 8.6645727 1.0572292
-1.7188724 8.6908913 1.0564003
-1.1614962 8.6224861 1.0374557
-2.1572452 8.7664747 1.076529
-2.033401 8.7231417 1.068063
-1.9457126 8.7090797 1.0640966
-0.96308625 8.7717724 1.0522561
-2.3206489 8.8438215 1.0902638
-2.2550187 8.8136435 1.0848173
-1.8573104 8.8207226 1.0748713
-1.3195748 8.9632034 1.0803179
-0.92213684 8.9019651 1.067175
-0.8746205 8.9805889 1.0759369
-0.8222959 9.0164413 1.0796075
-0.74285722 9.0681238 1.0849357
-0.63705695 9.1558008 1.094408
-0.52946377 9.2466965 1.104413
-0.44510639 9.266593 1.1062484
-0.38869637 9.2800627 1.1075509
-2.6359394 9.3414602 1.1573988
-2.5355334 9.3125753 1.1508867
6.9868965 8.3891897 1.3018517
7.0641108 8.3248596 1.3019109
6.9247413 8.4719448 1.3047526
6.853662 8.5442581 1.3061143
4.4033117 10.070547 1.3106136
4.5510979 10.070044 1.3177179
-11.86745 14.850475 1.3259616
-11.616871 14.908431 1.3183075
-11.511793 14.962036 1.3167768
5.4628472 11.161842 1.4818258
3.8327363 11.326383 1.4258207
3.3761783 11.594913 1.4400291
3.5263114 11.579206 1.4433445
3.6330011 11.672071 1.4576714
1.0885913 12.481859 1.4940214
21.250046 6.5715108 1.551478
21.119385 6.8161607 1.5479294
4.4794512 11.789333 1.5038489
4.3381944 11.853672 1.5051514
4.4056411 11.812875 1.5033753
1.403536 12.531315 1.5036122
0.17569861 13.147676 1.5679054
0.25619367 13.137415 1.5668398
0.33707848 13.146515 1.5681423
0.45889443 13.165617 1.5708656
0.58232832 13.213475 1.5771409
0.74907291 13.28762 1.5869685
0.83127177 13.293675 1.5882709
0.66857338 13.312792 1.589455
0.95597893 13.318577 1.5922375
1.0805559 13.334516 1.5952568
-7.4197593 14.99647 1.558036
-7.312777 15.011281 1.5548836
-7.2226844 15.060358 1.5553472
-7.0867853 15.012549 1.54589
-6.9827905 15.030467 1.5432938
-6.6027713 15.700419 1.5860369
7.6615372 11.141096 1.612307
2.3042014 13.689087 1.6552876
2.448967 14.022916 1.6974394
-6.187583 16.375233 1.6300781
7.262753 14.172644 1.898963
2.2497382 15.376125 1.8530223
2.3895249 15.344043 1.8517199
2.4845819 15.334973 1.8524302
1.9199321 15.427856 1.8538511
2.0181623 15.443355 1.8571664
2.1126134 15.428713 1.8569295
-0.08009319 15.875331 1.8930428
0.017248195 15.811975 1.8854649
7.2682695 14.400436 1.9234726
6.9105487 14.569985 1.9228806
8.3628054 14.516785 1.9977119
6.8348794 14.641806 1.926788
7.2712607 14.628823 1.9479822
7.7184935 14.617194 1.971071
7.895278 14.732348 1.9930942
5.0804181 15.643177 1.9612435
5.1772451 15.614537 1.9615986
1.6827345 16.896124 2.024708
