# .PCD v0.7 - Point Cloud Data file format
VERSION 0.7
FIELDS x y z
SIZE 4 4 4
TYPE F F F
COUNT 1 1 1
WIDTH 1507
HEIGHT 1
VIEWPOINT 0 0 0 1 0 0 0
POINTS 1507
DATA ascii
9.5786333 -7.8449073 -0.68354321
9.699564 -7.8450089 -0.68872494
9.8138323 -7.8383117 -0.69341052
9.91819 -7.8224673 -0.69737947
8.9465971 -7.7978277 -0.65520924
4.8990183 -7.5166917 -0.69352651
4.970325 -7.5247588 -0.69707161
5.0313768 -7.5164905 -0.69915241
3.4908168 -7.4832039 -0.63826942
3.5562928 -7.4439802 -0.63769144
3.6547337 -7.4144917 -0.63896304
3.7447627 -7.4242334 -0.64273936
3.8298626 -7.4221859 -0.64559078
3.9508772 -7.4313927 -0.65056163
4.0464387 -7.4451547 -0.654993
4.134172 -7.4424057 -0.65807569
4.2516689 -7.437417 -0.66219878
4.3448071 -7.4406486 -0.6660136
4.4440327 -7.452085 -0.67067611
4.5416956 -7.4590497 -0.67503041
4.6391277 -7.4634418 -0.67926908
4.7439175 -7.4777417 -0.68450969
4.8193703 -7.4946165 -0.68874836
2.4946446 -7.3784575 -0.60204792
2.56376 -7.3589125 -0.6023562
5.1482477 -7.5370989 -0.5039202
5.2496243 -7.5357533 -0.50703472
5.3540468 -7.5367074 -0.51039732
5.4489436 -7.5227551 -0.51282281
-1.0498236 -7.118113 -0.5561673
-0.93875515 -7.1199236 -0.55511409
-0.85043323 -7.1234818 -0.5545361
-0.76373774 -7.1408181 -0.55511409
-0.65396911 -7.149981 -0.5549857
-0.543226 -7.1459713 -0.55395806
-0.45495862 -7.1441412 -0.55334151
-0.34494948 -7.1422553 -0.55272502
-0.23546815 -7.1507487 -0.55303323
-1.5350226 -7.0656109 -0.55889034
-1.4452076 -7.0691705 -0.55773431
-1.3364258 -7.0895834 -0.5576573
-1.2472622 -7.0936646 -0.55673248
-1.1571975 -7.0907292 -0.5553453
5.0328035 -7.5157838 -0.49937242
3.556098 -7.4402514 -0.45527285
3.6569419 -7.4157076 -0.45648557
3.743423 -7.4183574 -0.45874569
3.8340201 -7.427001 -0.46144679
3.9541636 -7.4344959 -0.46489206
4.0488696 -7.4465299 -0.46795148
4.1417437 -7.4529696 -0.47073525
4.2648506 -7.4574947 -0.47429079
4.3514347 -7.4490123 -0.47627527
4.4515572 -7.4617448 -0.479693
4.5568924 -7.4810691 -0.48360682
4.6614232 -7.4964104 -0.48735529
4.7574911 -7.4962449 -0.49016663
4.8531847 -7.4935522 -0.49289531
4.9557672 -7.4998727 -0.49628544
1.1450601 -7.3570862 -0.41106305
1.46382 -7.3207164 -0.41216552
1.5072991 -7.3047514 -0.41177967
2.4607353 -7.3480821 -0.42782086
2.537694 -7.3525381 -0.42941949
1.3635836 -7.2831683 -0.40907857
1.4129907 -7.2991714 -0.41045669
-3.8019457 -6.8245277 -0.43129373
-15.200403 -6.1926308 -0.46420273
-15.225122 -6.0940456 -0.46380693
8.5799398 -7.8680086 -0.32923904
8.7972755 -7.8707676 -0.33384714
8.8581381 -7.8278933 -0.33432773
8.956459 -7.8174334 -0.33622187
9.0792103 -7.8269458 -0.33902064
9.1772976 -7.813859 -0.3408865
9.286274 -7.8088679 -0.34314814
9.4070673 -7.8124118 -0.34583387
9.5243874 -7.8115954 -0.34837821
9.6731195 -7.8347974 -0.35205337
9.8185873 -7.853343 -0.35558721
9.9199314 -7.8350801 -0.35750961
10.037183 -7.8281627 -0.35999742
10.176896 -7.8371763 -0.36327681
10.2789 -7.8157263 -0.36519921
-1.2701365 -7.1033497 -0.39838442
-1.0278141 -7.1287851 -0.39764023
-0.95942461 -7.117692 -0.39651018
-0.8487612 -7.1201367 -0.39587626
-0.76096493 -7.1265402 -0.39568332
-0.65069366 -7.1277046 -0.39515045
-0.540416 -7.1256208 -0.39452571
-0.45366484 -7.1436753 -0.3951872
-0.34411383 -7.1510663 -0.39526069
-1.5563257 -7.0650625 -0.39940423
-1.4671996 -7.072381 -0.39877027
-1.3553514 -7.0776649 -0.39785156
-1.2221147 -7.0854268 -0.39695117
-1.1545231 -7.0820503 -0.39615187
-1.0899724 -7.0968523 -0.39639995
-0.91267782 -7.0996771 -0.3951872
4.7549157 -7.5037613 -0.25124055
4.8262587 -7.5139737 -0.25256926
4.9322 -7.5256157 -0.2544775
5.0599465 -7.5175648 -0.25628683
5.1670628 -7.5263867 -0.2581951
5.2331247 -7.5232615 -0.25918457
5.3310127 -7.5645475 -0.26172891
5.4310551 -7.5090876 -0.26209643
3.5557468 -7.4528923 -0.23354316
3.6474314 -7.4095678 -0.23357144
3.740191 -7.4248357 -0.23512632
3.832422 -7.4366951 -0.23661052
3.9430704 -7.4261913 -0.23779789
4.0615215 -7.4276524 -0.23942344
4.1633153 -7.4502344 -0.24137411
4.2589779 -7.4592929 -0.24292898
4.3496008 -7.4578233 -0.2441729
4.4480062 -7.4676518 -0.24582672
4.5432734 -7.4704442 -0.24728265
4.645606 -7.4825997 -0.24909198
0.99706376 -7.3244925 -0.20906085
1.0408601 -7.3103194 -0.20883469
1.4632759 -7.3446603 -0.21180309
1.5344334 -7.3479595 -0.21229783
2.4885814 -7.3732457 -0.22008638
2.5564883 -7.3504677 -0.22010052
-1.3217753 -7.1113124 -0.20456584
-1.2549651 -7.1157589 -0.20435381
-1.1651356 -7.1158252 -0.20392975
-1.0538188 -7.1191254 -0.20353866
-0.94314408 -7.1244364 -0.20325124
-0.85636246 -7.1414289 -0.20342088
-0.74551803 -7.1419005 -0.20308633
-0.63556671 -7.1494017 -0.20299682
-0.5468235 -7.1442051 -0.20264342
-0.45963657 -7.1583567 -0.20286959
-1.5405679 -7.0732808 -0.20473546
-1.4526559 -7.0866628 -0.20459409
-1.3642524 -7.0971785 -0.2043962
-3.5730095 -6.891746 -0.21954924
8.6361876 -7.814353 -0.06911429
8.7943211 -7.859838 -0.069992535
8.870121 -7.830215 -0.070212096
8.973774 -7.8242722 -0.070651218
9.0814753 -7.8206129 -0.071120009
9.2321234 -7.8522058 -0.07192111
9.3421507 -7.8475084 -0.072401769
9.4640102 -7.8513322 -0.072971441
9.5955467 -7.8615584 -0.073612325
9.7159023 -7.8610287 -0.074164197
9.8280153 -7.8524494 -0.074650787
9.9812098 -7.8749971 -0.075445957
10.116903 -7.8818221 -0.076104641
10.230067 -7.8695941 -0.076591238
10.372128 -7.878047 -0.077291459
4.6345992 -7.5075355 -0.052356433
4.7469864 -7.5334396 -0.052840061
4.8466415 -7.5370264 -0.053175334
4.9391184 -7.5275831 -0.053427532
5.0429587 -7.533793 -0.053798415
5.1518774 -7.5452018 -0.054216765
5.2619228 -7.5562196 -0.054641053
5.3231764 -7.5450354 -0.05479534
5.4048419 -7.5618567 -0.055157319
3.4555118 -7.4075208 -0.048505209
3.511606 -7.4087696 -0.048653562
3.6600132 -7.4252825 -0.049125321
3.7612712 -7.4569626 -0.049561478
3.8483336 -7.4579654 -0.049801808
3.96138 -7.4512429 -0.050077744
4.0450668 -7.4426308 -0.050267633
4.1449852 -7.4618464 -0.05065335
4.2425838 -7.4747519 -0.05100346
4.3408184 -7.4863658 -0.051353574
4.4692187 -7.4943824 -0.051780827
4.5572429 -7.4845848 -0.052000385
1.4394433 -7.3221874 -0.044283107
1.5093005 -7.3209066 -0.044357285
1.6556736 -7.3445621 -0.044677727
1.8446833 -7.3385711 -0.044903222
2.4658189 -7.3676443 -0.046104871
2.541533 -7.3678298 -0.046250258
3.5552638 -7.3834791 -0.048629828
0.95190942 -7.2990608 -0.043680798
1.0872804 -7.2882147 -0.043728273
-1.3161867 -7.1019397 -0.042861897
-1.2506814 -7.1132259 -0.042858928
-1.1630388 -7.1265602 -0.042850025
-1.0535626 -7.1428337 -0.042846072
-0.93865407 -7.1192269 -0.042612664
-0.85232294 -7.1391416 -0.04266607
-0.76402438 -7.1435995 -0.042633433
-0.65321058 -7.1413054 -0.042555302
-0.54443032 -7.1621776 -0.042624533
-0.47803345 -7.1599336 -0.042582992
-3.7351353 -7.0019031 -0.0470929
-1.5591483 -7.0720072 -0.042974643
-1.4496366 -7.0907841 -0.042948931
-1.3591738 -7.0907841 -0.042844094
-15.245383 -6.1114187 -0.097467348
-15.190931 -6.1980476 -0.097360529
4.5583639 -7.5041046 0.18238394
4.66572 -7.523798 0.1839
4.7609506 -7.5219927 0.18491761
4.8576632 -7.5206251 0.18597677
4.9717703 -7.5441136 0.18767975
5.0616322 -7.5286837 0.18844816
5.1736841 -7.5444942 0.19002654
5.2478323 -7.5528383 0.19104417
5.352706 -7.5543108 0.19232139
5.462666 -7.5611272 0.19376476
5.5166335 -7.5379548 0.19403474
2.4973085 -7.4119086 0.16246749
2.552166 -7.4238648 0.16306975
3.5402598 -7.4303942 0.17097196
3.6864598 -7.4410954 0.1724984
3.7473249 -7.4487019 0.17320451
3.8285394 -7.4387403 0.17378601
3.9492993 -7.4472752 0.17510477
4.0445719 -7.4603295 0.17627816
4.1411948 -7.4734492 0.17748269
4.2667537 -7.4820008 0.17891568
4.3570638 -7.4796147 0.17980871
4.4556508 -7.489397 0.18102363
1.4333332 -7.3315578 0.15517795
1.5241015 -7.3178234 0.15527141
3.6043518 -7.3889933 0.17077467
-1.4138935 -7.1000266 0.15038055
-1.3489504 -7.1151605 0.15043247
-1.2612811 -7.1297002 0.15040132
-1.1474805 -7.1218376 0.14984752
-1.0375836 -7.134861 0.14976791
-0.95048261 -7.1510201 0.14985096
-0.86170065 -7.1542044 0.14968485
-0.75027484 -7.1511083 0.14936294
-0.63883209 -7.1439128 0.14898911
-0.55219579 -7.1651697 0.14927986
-0.46472478 -7.1788883 0.14943561
-1.5417829 -7.0610771 0.15013134
-1.4767222 -7.074935 0.15013134
-4.1429768 -6.813581 0.16564499
-3.9780805 -6.8221822 0.16404586
9.9952936 -7.9031057 0.26468724
8.5457277 -7.8448768 0.24097025
8.7806215 -7.8641491 0.24485385
8.8586636 -7.8366218 0.24568458
8.9487419 -7.8189569 0.24684758
9.0502901 -7.8102784 0.2483221
9.1665239 -7.8129683 0.25019121
9.3053093 -7.8331957 0.2526626
9.4477596 -7.854568 0.25521705
9.555275 -7.8453007 0.25681618
9.7010822 -7.8658614 0.25943294
9.8584242 -7.8936739 0.26234046
10.099549 -7.8853116 0.26616174
10.211086 -7.8720274 0.26782319
10.305337 -7.844347 0.26902774
10.434797 -7.8422346 0.27114606
8.5944433 -7.7929649 0.24099103
3.4973273 -7.5108423 0.36028957
4.4363337 -7.5033917 0.37905782
4.5351772 -7.5117865 0.38157761
4.6418419 -7.5310249 0.38470566
4.7405243 -7.5348415 0.38711685
4.8471484 -7.5493941 0.3901363
4.9577799 -7.5674934 0.3934164
5.0546813 -7.5627217 0.39556694
5.1564569 -7.5632744 0.39806503
2.4743781 -7.4103889 0.33974007
2.5528958 -7.4175644 0.34113032
3.5598316 -7.4647779 0.35963792
3.6626685 -7.4438219 0.36076745
3.7548306 -7.4571366 0.36307004
3.8418524 -7.4581776 0.36482957
3.9576821 -7.4567966 0.36711043
4.056138 -7.4754353 0.36984748
4.1485629 -7.4805226 0.37197629
4.2482147 -7.4968591 0.3747133
4.3380756 -7.4936981 0.37653801
1.4418473 -7.3615022 0.32620695
1.5108371 -7.3543191 0.32648933
-1.3442004 -7.1035719 0.31438988
-1.2549133 -7.1082211 0.31389028
-1.145008 -7.1223083 0.31370202
-1.0356997 -7.1394162 0.3137165
-0.94782686 -7.1501007 0.31365132
-0.85822904 -7.1463146 0.31299967
-0.74766779 -7.1511359 0.31267384
-0.63860416 -7.1692781 0.31299967
-0.54996669 -7.1686063 0.31265211
-0.46205631 -7.1763105 0.31271726
-0.39410999 -7.1463771 0.31124014
-1.5595505 -7.050211 0.31399888
-1.4524125 -7.0796313 0.31428131
-4.0291295 -6.9643345 0.34988448
-4.1619625 -6.8501906 0.34855941
-15.147173 -6.1616993 0.33968022
-18.21788 -6.0139666 0.39851576
-15.20512 -6.0768046 0.34013709
-18.226851 -5.8931508 0.39791349
5.2557683 -7.5586281 0.40034589
5.3313918 -7.5678906 0.40256158
5.4492583 -7.5857496 0.40616751
10.003309 -7.9037704 0.55440193
10.128022 -7.9018536 0.5586161
8.5989246 -7.8881817 0.50743788
8.6582689 -7.8453336 0.50808954
8.7881327 -7.8653498 0.51286846
8.8684139 -7.8397317 0.51473659
8.9765558 -7.8377352 0.5182122
9.1077023 -7.854279 0.52299118
9.2226534 -7.8552542 0.52681434
9.3532486 -7.8679743 0.53150642
9.4543734 -7.8544869 0.53450412
9.6043415 -7.8799753 0.54023886
9.7340155 -7.8869348 0.54480058
9.8617945 -7.8907247 0.54923195
10.253878 -7.8993111 0.56287372
10.368153 -7.8864474 0.56647962
3.5541422 -7.5290465 0.58073443
3.6002727 -7.5070972 0.58073443
4.1825542 -7.5031033 0.59917378
2.4980972 -7.4270992 0.54656953
2.5452411 -7.4163494 0.54691744
3.6509583 -7.4364424 0.57784677
3.7633827 -7.4333353 0.58115196
3.860512 -7.4542489 0.58553565
3.9551427 -7.4677033 0.58943224
4.0512156 -7.4819312 0.59346801
4.1186638 -7.4962764 0.59659922
1.4796952 -7.3497787 0.5229463
1.5597879 -7.3949275 0.527156
-0.31503612 -7.2055926 0.50308055
-1.4211216 -7.1168666 0.50621176
-1.3518355 -7.1100092 0.50482011
-1.2649938 -7.1290121 0.50502884
-1.1539196 -7.1376686 0.50433296
-1.043648 -7.1501446 0.50401986
-0.95331293 -7.1436272 0.50269783
-0.86424482 -7.1438956 0.50193238
-0.75360078 -7.1468272 0.50127137
-0.64393318 -7.1585999 0.50134099
-0.55679679 -7.1754093 0.502002
-0.4463892 -7.179235 0.50173521
-0.35894474 -7.197546 0.50266302
-1.52738 -7.0815201 0.50530714
-1.4629509 -7.0992198 0.50558549
-3.9057906 -6.8827753 0.55199695
5.5635047 -7.6103578 0.65755337
4.2427545 -7.50248 0.60119164
4.5609341 -7.5172033 0.61329901
4.6593609 -7.5223398 0.61719561
4.7577 -7.5255733 0.62102264
4.8312364 -7.5390749 0.62457132
4.9430213 -7.5593519 0.6299988
5.045032 -7.5625615 0.63410413
5.1430664 -7.5578032 0.63765281
5.2487903 -7.5626645 0.64210612
5.3590956 -7.5717916 0.64704645
5.4641638 -7.5715485 0.65129095
4.2976441 -7.4918814 0.60244417
4.3585825 -7.4912381 0.60453165
4.4490099 -7.4872017 0.60748887
1.4316276 -7.3433471 0.69668424
1.5001521 -7.3347731 0.69714785
-0.13799879 -7.2055006 0.67109406
-1.4186329 -7.104404 0.67461735
-1.3545725 -7.1244626 0.67531276
-1.2659222 -7.1341743 0.67471004
-1.1539143 -7.1376228 0.6732884
-1.0435928 -7.1499472 0.67285573
-0.95267075 -7.1390228 0.67067683
-0.86478341 -7.1481953 0.6704914
-0.75555825 -7.1660142 0.67100137
-0.64608216 -7.1822681 0.67151129
-0.55724883 -7.1812167 0.6707232
-0.44735444 -7.1944962 0.67124861
-0.33678204 -7.1969209 0.67090863
-0.24797398 -7.1865802 0.66961056
-0.18162932 -7.1816244 0.66896152
-1.5301697 -7.0944257 0.67582268
-1.4619969 -7.0945902 0.67452461
3.4886684 -7.5093641 0.77104425
3.6550803 -7.502955 0.77716362
4.0406981 -7.5173855 0.79473376
4.1228728 -7.5039368 0.79728347
2.4693584 -7.4168739 0.72793031
3.5529013 -7.4670172 0.7700243
3.7313118 -7.4836559 0.7786935
3.8447509 -7.4797916 0.783144
3.9391098 -7.4930649 0.78828984
2.5365562 -7.3910427 0.72765213
-15.056261 -6.1308436 0.70693737
10.122639 -7.9118738 0.8961513
8.6740618 -7.8734393 0.81710577
8.7964849 -7.8866615 0.82406402
8.8715973 -7.8563476 0.82656896
8.9767027 -7.8516793 0.8318572
9.0745335 -7.8394933 0.83644962
9.1892452 -7.8406458 0.84257293
9.328722 -7.8612547 0.85092276
9.4695616 -7.8810821 0.85934228
9.5824766 -7.8760376 0.86518717
9.6894875 -7.8648725 0.87047541
9.8146229 -7.8670392 0.8773641
9.9573555 -7.8815851 0.88578355
5.5033727 -7.6258793 0.87572306
4.1853218 -7.5080676 0.8004359
4.2450356 -7.5065131 0.80303198
4.336638 -7.5062876 0.80725068
4.4376411 -7.5205755 0.81313831
4.532896 -7.52285 0.81786692
4.633749 -7.5326033 0.82352275
4.7388945 -7.5469217 0.82982755
4.8323207 -7.5407662 0.83399987
4.9484353 -7.5675535 0.84197366
5.0526347 -7.5739579 0.84781486
5.151 -7.5694599 0.85258985
5.255342 -7.5721049 0.85829204
5.3417954 -7.5967302 0.86478227
5.407372 -7.5905724 0.86784202
1.4593655 -7.3787827 0.89691013
1.5064011 -7.3784456 0.89797574
-0.58346653 -7.2002225 0.86138892
-0.42842323 -7.2061014 0.86079693
-0.33962759 -7.2038736 0.85996807
-0.25129709 -7.2104759 0.86032331
-0.16288665 -7.2164907 0.86073768
-0.052116994 -7.212954 0.86012596
0.058618002 -7.2240491 0.86144817
0.12515704 -7.2267127 0.86186254
-1.3550975 -7.1137476 0.86352021
-1.2463067 -7.1362419 0.86383599
-1.1346247 -7.1416683 0.86227697
-1.0453891 -7.1447382 0.86103374
-0.95625222 -7.1466942 0.85979044
-0.848001 -7.1731205 0.86131001
-0.73583466 -7.1652541 0.85890245
-0.64834094 -7.1796823 0.85961282
-0.53853452 -7.1937652 0.86020488
-0.49438426 -7.1969342 0.86020488
-1.5316944 -7.0895081 0.86488187
-1.4423189 -7.0965776 0.86352021
10.249179 -7.9099531 0.90303999
10.333226 -7.8741245 0.9061712
10.455482 -7.8663502 0.91264236
2.5303941 -7.4560041 0.93888438
3.5442047 -7.4554214 0.98435146
3.6723771 -7.4866986 0.99435663
3.758076 -7.4863377 0.99885595
8.723299 -7.9181309 1.0970412
8.5741091 -7.8792067 1.0843389
8.7657881 -7.8591394 1.0962995
4.1523619 -7.5090489 1.023188
4.2430086 -7.5090451 1.0284569
4.3335629 -7.507021 1.0336075
4.4329557 -7.5186305 1.040771
4.5347795 -7.531888 1.0483488
4.666316 -7.5394211 1.0572883
4.776051 -7.5604424 1.0663462
4.8416276 -7.5610986 1.0706087
4.938478 -7.5581207 1.0765882
5.0521321 -7.5789342 1.0861197
5.1479235 -7.5706491 1.0916847
5.2541575 -7.5760427 1.099381
1.364683 -7.4032755 1.0794379
1.4351188 -7.4025126 1.081212
1.5054579 -7.4001818 1.0828443
3.8404317 -7.4778848 1.002408
3.9665282 -7.4955683 1.0112292
4.0568233 -7.4985385 1.0166166
0.57161909 -7.3156495 1.0521858
0.63944948 -7.3159604 1.0530374
0.73040652 -7.3198748 1.0548115
0.84587866 -7.3361039 1.0589041
0.96177423 -7.3484926 1.0626891
1.0529459 -7.3439837 1.0638247
1.1457546 -7.3481112 1.0663795
1.240387 -7.3603368 1.0702828
1.3135072 -7.3793492 1.0747539
1.575989 -7.3975916 1.0845475
1.6675315 -7.3815551 1.0851153
1.7631437 -7.3822031 1.0883089
1.8582187 -7.3782434 1.0910058
1.9587615 -7.3931589 1.0966833
-0.14552115 -7.2044044 1.0332607
-0.035000242 -7.2096405 1.0338048
0.053546891 -7.2223949 1.03565
-1.4537562 -7.1273165 1.0430307
-1.3583753 -7.1037846 1.0370693
-1.2487974 -7.1212945 1.0367144
-1.1383275 -7.1328268 1.0357208
-1.0507694 -7.1467505 1.0357919
-0.96372199 -7.1645012 1.0365725
-0.85289294 -7.1715035 1.035579
-0.74127424 -7.1690283 1.0334499
-0.65215766 -7.1657562 1.0317466
-0.56381691 -7.1687799 1.0311079
-0.45424995 -7.1836076 1.0321251
-0.3440764 -7.1915998 1.0323853
-0.25561267 -7.1898398 1.0316048
-1.5313358 -7.0639606 1.0364306
-14.009101 -6.3004403 1.0714293
-14.05297 -6.216785 1.0718468
-14.432704 -6.1741281 1.0949482
9.7469511 -7.9115157 1.1689906
9.8706722 -7.9119668 1.1779842
9.9986668 -7.9142847 1.1874415
8.8608074 -7.8467927 1.1021408
8.9874811 -7.8611069 1.1118762
9.1365108 -7.8930359 1.1243005
9.2347603 -7.8794813 1.1304199
9.3636427 -7.8906813 1.1402479
9.4822922 -7.8916769 1.1487781
9.603611 -7.8934083 1.1575862
5.5902047 -7.6524863 1.1300476
3.4812739 -7.5140305 1.1874526
5.3629494 -7.5828357 1.1074916
5.4624138 -7.5746942 1.1135894
2.0647433 -7.4238725 1.1049156
2.168813 -7.4431267 1.1116576
2.2984588 -7.4601078 1.1193223
2.3471625 -7.4553061 1.1207417
2.4514444 -7.4654412 1.1267031
2.5278354 -7.4654918 1.1301806
3.5496316 -7.4802942 1.1872396
3.6629467 -7.4806113 1.1943365
3.7438312 -7.4709649 1.1982398
10.171775 -7.9502783 1.2021837
10.272389 -7.927866 1.2083031
10.365982 -7.8990855 1.213588
4.0545034 -7.5067673 1.2233628
4.1504817 -7.5180321 1.2313824
4.268569 -7.5125895 1.238976
4.3549156 -7.5030003 1.2439438
4.4259791 -7.5187907 1.2510407
4.535553 -7.5451255 1.2623248
4.6361132 -7.5541615 1.2709121
4.7359629 -7.5597515 1.2791444
4.839427 -7.569293 1.2882285
4.9073129 -7.5726843 1.293906
1.515278 -7.4351668 1.2847767
3.830523 -7.4713683 1.2039173
3.9549863 -7.4863758 1.2140659
-0.43105543 -7.2083111 1.2226746
-0.34331962 -7.228322 1.2252622
-0.25422919 -7.2221375 1.2235928
-0.1656331 -7.2256985 1.2237598
-0.054700118 -7.2242107 1.2232312
0.056185715 -7.237731 1.2255127
0.14515743 -7.2424107 1.2265143
-1.5422637 -7.1262121 1.2345275
-1.4532855 -7.137845 1.2333589
-1.3436499 -7.1595693 1.2334145
-1.2320766 -7.1698322 1.2317729
-1.1387485 -7.1513023 1.2260969
-1.0497917 -7.1574278 1.2248449
-0.96137357 -7.1658602 1.2241771
-0.85036975 -7.1715484 1.2227861
-0.739793 -7.1792283 1.2220069
-0.65092498 -7.1799107 1.2206714
-0.56197667 -7.1775303 1.219002
-0.49672201 -7.1942348 1.2210053
8.5603094 -7.8720388 1.3867474
8.6694555 -7.8747792 1.3965749
5.1661148 -7.6088152 1.3187451
5.2753634 -7.6179709 1.3286808
5.3413372 -7.6130095 1.3335067
2.5721476 -7.511826 1.3443745
4.9786825 -7.5804911 1.3004351
5.0530739 -7.5918255 1.3076739
5.3965516 -7.5921946 1.3356358
5.4349365 -7.5476928 1.3336486
2.5137742 -7.4910121 1.3378638
8.8070421 -7.9016733 1.4109018
9.6129055 -7.906672 1.4841938
8.8427267 -7.8362899 1.4088889
9.0199041 -7.8950253 1.4293728
9.1357822 -7.8979774 1.4400291
9.2339115 -7.8843279 1.4478438
9.3458776 -7.8812923 1.4577898
9.4718866 -7.8886161 1.469867
9.7175026 -7.8932409 1.4928373
3.5428877 -7.5187984 1.4073112
3.7073176 -7.506237 1.4174947
3.8856082 -7.5155511 1.4325193
3.9970112 -7.5038514 1.4395308
4.0607953 -7.5121446 1.4458746
4.1581268 -7.5257583 1.4558076
4.2565508 -7.539155 1.4659075
4.3486967 -7.539309 1.4736702
4.4486513 -7.5512753 1.483937
4.5451794 -7.5551486 1.4928684
4.6364298 -7.5487657 1.4999634
1.4503292 -7.41465 1.4685932
3.5902326 -7.4995861 1.4078121
3.6387689 -7.4827356 1.4088137
3.7577255 -7.4921613 1.4191641
3.8130219 -7.4874139 1.4226698
3.9339404 -7.4959331 1.433354
0.47092858 -7.3126993 1.4243892
-0.82175905 -7.2006145 1.4087429
-0.64453763 -7.2156796 1.4081705
-0.55523354 -7.21382 1.4063896
-0.46656537 -7.2185488 1.4060715
-0.35476208 -7.2042332 1.4020646
-0.28840917 -7.2062464 1.4018737
-0.15587752 -7.2184219 1.4034638
-0.045217544 -7.2334356 1.4060715
0.043538965 -7.2354093 1.4064531
0.15503523 -7.2577133 1.4110962
0.26624665 -7.2512684 1.4104602
0.35648119 -7.2729454 1.4154212
0.42422351 -7.2840924 1.4182833
-1.5523369 -7.1127787 1.4151349
-1.4436265 -7.1387501 1.4157392
-1.3301165 -7.1391926 1.4116051
-1.239517 -7.1385427 1.4083613
-1.1506507 -7.1459475 1.4069302
-1.0666997 -7.1852598 1.4119866
-0.95323372 -7.1770382 1.4073435
-0.86205524 -7.1632752 1.4024462
-0.75269425 -7.1814785 1.403591
-0.68684006 -7.1910682 1.4041635
-0.42071724 -7.1948171 1.4009197
-0.24388793 -7.1990504 1.4001565
-13.997176 -6.2950773 1.4291577
-14.554966 -6.1210537 1.4703246
-14.182022 -6.1701064 1.4401913
9.881937 -7.9266634 1.5105979
10.01056 -7.9293838 1.5227935
10.14506 -7.9351044 1.535818
10.273717 -7.9346147 1.5478952
10.374322 -7.9111662 1.5557098
10.513101 -7.9154491 1.5692079
4.9968596 -7.6023822 1.5403631
5.0718355 -7.6142497 1.549044
5.1416283 -7.6173091 1.5560555
5.2358561 -7.6049271 1.5633175
5.3444223 -7.6117539 1.5747529
5.4178872 -7.6165795 1.5825992
4.7450371 -7.568347 1.512484
4.8442054 -7.5709419 1.5218327
4.9152465 -7.5791287 1.5295119
5.475472 -7.5983911 1.585771
2.4601636 -7.4499211 1.525041
2.5249903 -7.4163151 1.5228467
-0.74376142 -7.2055235 1.5979643
-0.6778748 -7.216958 1.5990413
-0.56629825 -7.2162504 1.5967793
-0.45504066 -7.2163982 1.5950922
-0.36677215 -7.227706 1.5964563
-0.25629956 -7.2446461 1.599149
-0.14512375 -7.247623 1.599149
-0.033908278 -7.2412868 1.5974257
-1.0314555 -7.1769366 1.5994722
-0.96432126 -7.1783485 1.5977488
-0.8527928 -7.1812482 1.5953074
-0.63144577 -7.1966619 1.5936558
8.5864429 -7.9071422 1.6737318
8.7402439 -7.950222 1.6941708
8.8183146 -7.9229059 1.6998484
3.4706564 -7.5186186 1.6096648
3.5200596 -7.5042911 1.6111913
3.6311321 -7.5002885 1.6197777
3.7465808 -7.5025878 1.6300813
3.8456526 -7.5267315 1.642961
3.961941 -7.5250201 1.6530738
4.0503349 -7.5241561 1.6609924
4.1459451 -7.5346575 1.6716777
4.2391424 -7.5390253 1.6812181
4.3369703 -7.549428 1.6923804
4.4243879 -7.5401502 1.699345
3.5664611 -7.4834375 1.611382
3.6874804 -7.4990082 1.6243571
0.43946305 -7.3469157 1.6235988
1.4544204 -7.3741355 1.6580654
-0.32315645 -7.2464046 1.6001184
-0.1452821 -7.2550817 1.6007646
0.055139072 -7.2650814 1.6027035
0.14409992 -7.2545829 1.600657
0.23337016 -7.2605648 1.602488
0.3452121 -7.2655005 1.6045704
-1.5166121 -7.107265 1.6031343
-1.4508219 -7.1194563 1.6028111
-1.3459805 -7.1649685 1.6082325
-1.2337673 -7.1721535 1.605396
-1.1444163 -7.1790414 1.6036727
-1.0766317 -7.1781983 1.6011955
-1.5599833 -7.0968719 1.6029189
8.9134064 -7.9100418 1.7087905
9.0354691 -7.9197965 1.7228423
9.1430159 -7.915391 1.7340554
9.2500944 -7.9093184 1.7451266
9.3695412 -7.912447 1.7584687
9.5053358 -7.9277191 1.7747916
9.6256227 -7.9284043 1.7881337
4.844543 -7.6006579 1.7520083
4.9467087 -7.6054583 1.7635522
5.0509276 -7.6116209 1.7756686
5.1609769 -7.624074 1.7895977
4.4946647 -7.5533519 1.7085038
4.5749049 -7.581943 1.7212881
4.6367092 -7.5788498 1.7270123
4.7372427 -7.58532 1.7383654
2.4580669 -7.4812036 1.7371237
2.5318565 -7.4730139 1.7405703
-0.74518061 -7.2017436 1.785063
-0.54551059 -7.2122769 1.7832677
-0.45732048 -7.2237563 1.7845843
-0.34615859 -7.2240467 1.7831482
-0.2352879 -7.2275925 1.7829087
-0.14668566 -7.2357602 1.7843449
-0.057902776 -7.238472 1.784704
0.053351298 -7.2609429 1.7902497
0.16441788 -7.248004 1.7874569
0.25400564 -7.2633905 1.7918854
0.32105729 -7.2661157 1.793202
-1.5408112 -7.1051426 1.7924839
-1.4549545 -7.130724 1.7943192
-1.3456082 -7.1530457 1.7945187
-1.2561829 -7.160419 1.7923641
-1.1456262 -7.1751099 1.7914466
-1.0341105 -7.1826048 1.7891326
-0.9429096 -7.1721325 1.7835071
-0.85423112 -7.1783457 1.7823102
-0.78935564 -7.1970358 1.785063
-0.65449744 -7.1851115 1.7788391
9.776988 -7.9528947 1.8071535
9.885025 -7.9404879 1.8180827
10.032826 -7.9584265 1.8362508
10.194465 -7.9852242 1.8568317
10.285551 -7.9552245 1.8644964
10.382946 -7.9292126 1.8732965
5.2637968 -7.6239896 1.8008554
5.3374858 -7.6301575 1.8100142
5.4046364 -7.6260958 1.8168833
3.5503075 -7.5379996 1.8380827
3.6508586 -7.5109301 1.8422472
3.7672625 -7.5144486 1.8543106
3.8536587 -7.5132923 1.8627119
3.9690633 -7.509901 1.8738059
4.0535569 -7.501884 1.8810223
4.1262717 -7.5256772 1.8933011
5.4513273 -7.5927896 1.8168833
1.3876623 -7.4035182 1.8571167
3.7011988 -7.4971437 1.8444014
0.4124994 -7.3023424 1.803256
1.4562337 -7.3927741 1.8577151
0.36719722 -7.2950392 1.8008622
-14.038926 -6.3079629 1.8352617
-14.03468 -6.202837 1.8296967
8.7325726 -7.9376755 1.9981148
4.8612108 -7.6004415 1.9902388
2.4376009 -7.5027213 1.9449695
4.1927843 -7.536912 1.902564
4.2648683 -7.5569673 1.9141966
4.3591266 -7.5604858 1.9251828
4.4473467 -7.5520744 1.9333687
4.5416288 -7.5521669 1.9440318
4.6489577 -7.5721254 1.9600804
4.7573838 -7.5910025 1.9762367
2.4860363 -7.4949956 1.9468845
2.5338459 -7.4851184 1.9483209
-0.63314998 -7.2016492 1.9736798
-0.54481316 -7.2100692 1.974031
-0.43491495 -7.2303133 1.9774985
-0.34592667 -7.229805 1.9760501
-0.25726277 -7.2368813 1.9769719
-0.14646047 -7.2519755 1.9802641
-0.035289165 -7.2635546 1.9830294
0.053846017 -7.2615113 1.9825026
0.14322749 -7.273324 1.986058
0.23257416 -7.2748766 1.9871114
0.3220827 -7.27774 1.9888234
-1.5468423 -7.1355257 1.9933007
-1.4584198 -7.1501837 1.9922471
-1.3481973 -7.1699257 1.9917642
-1.2383109 -7.191082 1.9921155
-1.1441203 -7.1690598 1.9819758
-1.0545064 -7.1720629 1.9790788
-0.96660614 -7.1858974 1.9794738
-0.85532904 -7.1918373 1.9772791
-0.74369282 -7.1924949 1.9740748
-0.67705542 -7.1947474 1.9728897
8.8251324 -7.9234657 2.0081313
8.923008 -7.9129968 2.0193164
9.0314693 -7.9107184 2.0328386
9.1491852 -7.9151459 2.0483642
9.2560472 -7.9088173 2.0613854
9.3707104 -7.9078321 2.0760763
9.5061569 -7.9227791 2.0952744
4.9685922 -7.6129742 2.0054257
5.0673971 -7.6104646 2.0169506
5.1353002 -7.6107984 2.0253518
5.2544718 -7.6347055 2.044524
5.368207 -7.6484675 2.0613265
5.431447 -7.6384645 2.0675735
5.5187378 -7.6612506 2.0828681
3.2613807 -7.5191975 2.0207334
3.3708673 -7.5175991 2.0312662
3.4502397 -7.5088015 2.0373704
3.6808631 -7.518662 2.0639417
3.7437856 -7.5298419 2.0732777
3.8296649 -7.5279026 2.0823741
3.93822 -7.5117216 2.0911117
1.3428357 -7.4121323 2.056509
1.4379011 -7.4168806 2.0625665
1.5310674 -7.4095387 2.0655951
1.6304965 -7.4292884 2.076525
1.7308965 -7.4491339 2.0878496
1.847371 -7.4314823 2.090615
1.9433321 -7.427012 2.0958824
3.1657245 -7.4868002 2.0040965
3.495837 -7.4866099 2.0371311
3.5437891 -7.4694047 2.0383279
3.6102099 -7.4903769 2.0500576
0.39188656 -7.3270011 2.0031769
0.46008074 -7.335083 2.006469
0.5516789 -7.3505301 2.0123949
0.64364409 -7.3638687 2.0180573
0.73490769 -7.365016 2.0206909
0.84794354 -7.3542576 2.021086
0.95953023 -7.3318348 2.0187156
1.0490113 -7.3166447 2.0179255
1.1452408 -7.3446751 2.0293822
1.2446527 -7.3857193 2.0447893
21.803003 -8.8936176 2.1926918
9.6512709 -7.9438777 2.1164758
9.7663956 -7.9386148 2.1309998
9.8841219 -7.9340878 2.1460245
10.03152 -7.9516864 2.167393
10.148446 -7.9434638 2.1820836
2.1634669 -7.5105715 2.1338074
2.2409129 -7.5184984 2.1418402
2.3115711 -7.5026665 2.1432886
4.0482311 -7.5517979 2.1125362
4.1392708 -7.5537605 2.1236672
4.2638798 -7.559464 2.1398253
4.3608689 -7.5679197 2.1534703
4.4194708 -7.561976 2.1594548
4.531683 -7.5926275 2.1800413
4.6261225 -7.5912762 2.191771
2.1081953 -7.4912033 2.1245897
2.4734964 -7.4553862 2.144474
0.17275688 -7.301929 2.1926861
0.48721334 -7.3040228 2.1975741
-0.73951936 -7.2158589 2.1775908
-0.64887762 -7.2014947 2.1706903
-0.56167287 -7.2246714 2.1754346
-0.44968274 -7.2142158 2.1699715
-0.3390595 -7.2227144 2.1706903
-0.25040939 -7.2268105 2.1708341
-0.16164221 -7.2264667 2.1699715
-0.050836686 -7.2417665 2.1740925
0.06042663 -7.2653756 2.181185
0.12769817 -7.288487 2.1883733
0.23938093 -7.2832441 2.1876545
0.35146859 -7.28583 2.189811
0.44134566 -7.2896662 2.1923985
-1.5450273 -7.1582527 2.1984367
-1.4512907 -7.1485271 2.1898108
-1.3646953 -7.1719007 2.1916797
-1.2494445 -7.1625161 2.1827185
-1.1382883 -7.1739674 2.1806099
-1.0500759 -7.1869249 2.1804662
-0.95865768 -7.1755328 2.1732779
-0.84788734 -7.1847453 2.1718884
21.968994 -8.8044882 2.2039108
22.513643 -8.8628283 2.2530513
22.807207 -8.8171511 2.2769725
8.7394829 -7.9228029 2.2929518
10.345837 -7.945426 2.2087107
8.5262938 -7.8737803 2.255935
6.4834194 -7.7305765 2.2256896
4.7689242 -7.6137505 2.2149911
4.8379297 -7.6195912 2.2252846
4.9438066 -7.6300659 2.2415624
5.0512514 -7.6410222 2.2583191
5.1471663 -7.6323814 2.2696896
5.2543206 -7.6387448 2.2858479
5.3294044 -7.646986 2.2980564
3.5514061 -7.5437045 2.2762895
3.666477 -7.546411 2.2905114
3.7409403 -7.5226631 2.2936718
4.6914973 -7.5933094 2.2006283
3.5718193 -7.4678144 2.2599607
0.6259656 -7.3453503 2.2131007
-14.324985 -6.319191 2.2450318
-14.215467 -6.1669607 2.2218959
9.0074492 -7.9175038 2.3311136
9.1322098 -7.9283705 2.3507669
9.2298679 -7.9143596 2.3633604
9.3599062 -7.9267259 2.3841586
8.8765697 -7.8995342 2.3097429
5.394146 -7.6395221 2.3057165
5.4759421 -7.655241 2.3205581
2.4240627 -7.5145707 2.3703783
3.8651068 -7.5388536 2.3128977
3.9558198 -7.5440216 2.3255394
4.05404 -7.5612316 2.3422632
4.1691418 -7.5518694 2.3550367
4.260735 -7.5527225 2.367415
4.3638229 -7.5716267 2.3858507
2.4701257 -7.4995551 2.3703783
0.1663781 -7.3105407 2.3928974
0.23374256 -7.3115149 2.3938303
0.30083483 -7.3043404 2.3922753
-1.2178664 -7.2045207 2.3910313
-1.0366309 -7.2040172 2.381701
-0.94797331 -7.214849 2.3812864
-0.83623719 -7.220417 2.3785911
-0.74725401 -7.2268238 2.3775024
-0.65875739 -7.2382903 2.3784356
-0.54595518 -7.2248988 2.3710232
-0.43438989 -7.2214127 2.3673944
-0.34607938 -7.2337952 2.3698826
-0.25795713 -7.2555428 2.375792
-0.14681004 -7.2693591 2.3793166
-0.035307419 -7.2676444 2.3782799
0.053891715 -7.2661047 2.3778133
0.12124983 -7.295269 2.3876102
0.36629397 -7.2665825 2.3809235
-1.5479014 -7.1403694 2.3908758
-1.4615674 -7.1658144 2.3932085
-1.3511214 -7.1854653 2.3925865
-1.2620496 -7.1969123 2.3910313
-1.1479378 -7.1928611 2.3835671
-1.0779916 -7.1787238 2.3754809
9.4942064 -7.9409404 2.4059107
9.6358414 -7.9594293 2.4293802
9.7483921 -7.9522767 2.4454081
9.8864412 -7.9643626 2.4677329
10.016553 -7.968329 2.4879587
4.7411313 -7.6200027 2.4501123
4.8478055 -7.6337976 2.4688115
4.944067 -7.6294012 2.4819798
5.0114408 -7.6303682 2.4922514
3.4600282 -7.5718637 2.4991906
4.4597168 -7.5761042 2.4000726
4.554626 -7.5768428 2.4135044
4.6544232 -7.5839963 2.4293063
1.4451811 -7.4544477 2.4848003
1.5136398 -7.4404006 2.4846447
3.5383804 -7.4985175 2.4891272
8.5890808 -7.9068012 2.5753117
10.141679 -7.9667511 2.5068488
10.267159 -7.9639354 2.5257387
10.355577 -7.9312277 2.53547
5.5559945 -7.7158103 2.5957549
3.5314343 -7.6043487 2.5170174
5.0848913 -7.6396289 2.5054197
5.159183 -7.6490731 2.5188515
5.2403131 -7.6674495 2.5354438
5.3282948 -7.6441784 2.5438714
5.4325356 -7.6428194 2.559937
3.6383147 -7.5298243 2.5105481
3.7616551 -7.5471735 2.5315375
3.8546228 -7.5588031 2.5472078
3.9426451 -7.5586205 2.559284
4.0618715 -7.5594354 2.5762482
4.1579847 -7.5704846 2.5929246
-1.0931387 -7.2038589 2.5931108
-0.9353931 -7.2041502 2.5853992
-0.84691668 -7.2150865 2.5853992
-0.75905454 -7.2319632 2.587914
-0.64689928 -7.2297149 2.5832758
-0.53635699 -7.2452679 2.585567
-0.44734061 -7.2498922 2.5850639
-0.35831493 -7.2543654 2.5848963
-0.2468289 -7.2550292 2.5834992
-0.13582671 -7.2727757 2.5887523
-0.046536043 -7.2720108 2.5880816
0.042762604 -7.2828684 2.5919375
0.15447657 -7.2811408 2.5918815
0.24436443 -7.2954235 2.597805
0.33404446 -7.29564 2.5991461
0.46676657 -7.264751 2.5907638
-1.4490361 -7.1600118 2.5998166
-1.3158092 -7.1789842 2.5974696
-1.2483864 -7.1833305 2.5947874
-1.1591604 -7.1920648 2.592608
-1.0244067 -7.1967907 2.5870757
26.891815 -9.2737055 2.6488652
27.219873 -9.2003479 2.6755681
13.384219 -8.1606474 2.6541924
11.060644 -8.0483856 2.6589234
11.183966 -8.0336275 2.6766686
8.7465305 -7.9531517 2.6078396
8.8300381 -7.930655 2.6181798
8.9398966 -7.9307609 2.6362748
9.0405369 -7.9214497 2.6515694
9.1775799 -7.9425125 2.6774194
9.2840414 -7.9355407 2.694222
4.360949 -7.6048326 2.6317408
4.4210124 -7.6011128 2.6397917
4.551815 -7.6095777 2.6619313
4.6511679 -7.6155043 2.6788955
4.7574902 -7.6309757 2.6995974
2.5498691 -7.5306125 2.6017394
4.253315 -7.5777578 2.6087389
4.4826536 -7.5994163 2.648705
1.3545198 -7.4122982 2.6816268
0.2893849 -7.3003764 2.600152
0.37934089 -7.3038025 2.6028342
0.42453149 -7.3079209 2.6051812
1.3983999 -7.3955159 2.6786091
1.4432095 -7.3840227 2.6776032
-1.5592874 -7.1396704 2.6008224
-1.4501188 -7.1654196 2.6018286
-1.3617648 -7.1809568 2.6011579
-14.312222 -6.31953 2.6490171
27.624594 -9.1486654 2.7097809
21.709858 -8.8644638 2.7962284
11.694277 -8.1845245 2.7745538
11.336346 -8.0380964 2.701283
9.4325476 -7.9628348 2.7230878
9.5329819 -7.9479556 2.7379518
9.6705256 -7.9625573 2.7633708
9.7964811 -7.9659104 2.7853434
3.5286493 -7.6162863 2.7468247
4.856864 -7.632853 2.7159867
4.9675589 -7.6505575 2.7384136
5.0338888 -7.6495361 2.7490523
5.1468172 -7.6664252 2.7720542
5.2495985 -7.6662178 2.7893062
3.5753157 -7.5944915 2.7468247
3.6372244 -7.5449514 2.7409155
3.7488289 -7.5384517 2.7550664
3.8436587 -7.5540929 2.7735715
3.9321251 -7.5550165 2.7871003
2.4362884 -7.4581037 2.7922714
-1.060456 -7.2038331 2.792191
-0.94821304 -7.2070079 2.7874768
-0.83812308 -7.2255521 2.7893267
-0.74890757 -7.2306499 2.7875364
-0.66038859 -7.2420835 2.7886105
-0.54853153 -7.2421494 2.7850897
-0.436719 -7.2393627 2.7810917
-0.34847116 -7.2567663 2.7859254
-0.25937802 -7.2600298 2.7857461
-0.14789848 -7.258585 2.7840157
-0.036564104 -7.2701716 2.7878942
0.03043795 -7.2949777 2.7973826
0.12003303 -7.2987227 2.7991729
0.27655467 -7.2897625 2.7973824
0.3420161 -7.2524338 2.7841351
-1.5178701 -7.1010141 2.784493
-1.4746495 -7.1120224 2.7852092
-1.2392402 -7.1889782 2.7973826
-1.1494455 -7.1944256 2.7938023
-1.5602078 -7.0860958 2.7823448
21.949076 -8.8053989 2.8200276
22.367601 -8.8143559 2.8667972
8.5457869 -7.9194617 2.8725703
9.9510126 -7.9906378 2.8152864
10.077136 -7.9907093 2.8370435
10.204401 -7.9901338 2.8590162
10.329718 -7.9865031 2.8803422
10.410351 -7.9472651 2.8891745
4.4451065 -7.6044569 2.8824244
4.5421667 -7.6089835 2.8998408
5.3396711 -7.6960287 2.8120208
5.4388051 -7.6867423 2.8268285
4.0596056 -7.5715084 2.8113589
4.1599016 -7.5901551 2.8323519
4.2488718 -7.5859041 2.8452587
4.3465834 -7.5956135 2.8637638
0.075304389 -7.304924 2.801321
0.16506787 -7.3090506 2.8034692
0.20988543 -7.3069668 2.8031113
0.39157972 -7.3453016 2.8206553
-1.4436761 -7.1841002 2.8099141
-1.3530158 -7.1883302 2.8049014
22.735191 -8.7984333 2.9069359
8.7302942 -7.9914355 2.9180527
8.8036509 -7.9598565 2.9261916
8.9138813 -7.9606614 2.9465389
9.0237217 -7.9597683 2.9666469
9.1294928 -7.9539981 2.9853187
4.6431904 -7.6179209 2.9194343
4.748733 -7.6322207 2.9415159
4.849885 -7.637063 2.9604874
4.9602556 -7.6543827 2.984746
5.0259113 -7.652401 2.9959424
3.5531194 -7.5776772 2.9785795
3.6456156 -7.5330324 2.9783559
3.7336409 -7.5370913 2.993444
1.4177905 -7.4422412 2.9051533
9.6583147 -8.0063925 3.09304
9.2414179 -7.9522943 3.0059054
9.3507042 -7.9469995 3.0255346
9.4825821 -7.9593873 3.0523453
4.0554647 -7.6484413 3.0809538
5.0917287 -7.6499009 3.0071385
5.1486692 -7.6334853 3.0130477
5.2340221 -7.6582456 3.0354404
2.4501162 -7.5438876 3.0415673
2.5194726 -7.5210476 3.0415673
3.8629169 -7.563282 3.0224462
3.9574206 -7.5754819 3.0417252
1.0749023 -7.4021339 3.0967083
0.1570743 -7.3090038 3.0267067
0.22412209 -7.3003564 3.023838
0.36040968 -7.3346763 3.0402863
0.45145759 -7.3474393 3.0476818
0.56434399 -7.3421612 3.0487018
0.65487963 -7.3402061 3.050997
0.74686998 -7.3509197 3.0590301
0.83917069 -7.3600197 3.0668716
0.93193126 -7.3688736 3.0750959
1.0025527 -7.3810797 3.083894
1.1440331 -7.3988123 3.0995774
-1.2044133 -7.2038064 3.023838
-1.1369283 -7.2072468 3.0207777
-0.95755494 -7.2169533 3.0140836
-0.84615779 -7.2256866 3.0119798
-0.73327529 -7.2185688 3.0039468
-0.6450817 -7.2325497 3.0062418
-0.55653334 -7.2426815 3.0073895
-0.4454836 -7.2530789 3.0085371
-0.3348487 -7.2724962 3.0140836
-0.24484782 -7.2548199 3.0052857
-0.15623786 -7.2776003 3.013701
-0.066896088 -7.27666 3.0127449
0.04485644 -7.2964826 3.0209053
0.26836774 -7.2840705 3.0177176
0.31361246 -7.2952104 3.023073
-1.5394748 -7.1637745 3.0335922
-1.4496098 -7.1730719 3.029767
-1.3608079 -7.186686 3.0282369
-1.2703536 -7.1905594 3.0230727
-1.0444613 -7.1936855 3.0094934
-14.321798 -6.1893435 3.0327184
9.7643557 -7.9937229 3.111233
9.8940096 -7.9989748 3.1368468
10.01347 -7.994453 3.1591091
10.137819 -7.9923706 3.1828079
4.3423653 -7.6700153 3.1367791
4.4205518 -7.6432319 3.1423113
1.1911712 -7.4025998 3.1041677
1.2626772 -7.4113235 3.1125832
1.3595382 -7.4279852 3.1263537
1.4591078 -7.4542656 3.1447148
1.559351 -7.4783068 3.1626935
1.6322064 -7.4826417 3.1707265
8.5816603 -8.0006027 3.2030816
8.6369762 -7.9536772 3.2054517
8.7648296 -7.9725852 3.2346857
8.8602276 -7.9605632 3.2518046
8.9687939 -7.9591947 3.2736642
10.258686 -7.9860797 3.2053096
10.355222 -7.9596691 3.2201514
3.4751036 -7.6265211 3.2137854
2.4662571 -7.542779 3.2854831
0.39811933 -7.4192533 3.2831864
0.4439632 -7.4221492 3.2856116
-0.011785396 -7.3000336 3.2257924
0.055501964 -7.3112316 3.2308445
0.14557481 -7.3287477 3.2391305
0.23574516 -7.3337221 3.2423639
0.32564017 -7.327992 3.2413535
-1.3073299 -7.2024803 3.2346845
-1.2623225 -7.2058616 3.2326634
-1.1481128 -7.2022123 3.2227609
-1.059042 -7.2116871 3.2209423
-0.94868392 -7.2303567 3.2224243
-0.83801365 -7.246685 3.2235694
-0.74915087 -7.2577887 3.2241757
-0.65997827 -7.265522 3.2237716
-0.5472787 -7.2595344 3.2170353
-0.43659851 -7.2796106 3.222559
-0.34700316 -7.2789369 3.2201338
-0.25754577 -7.2803631 3.2191234
-0.14603584 -7.2930017 3.2233675
-0.056513537 -7.2915921 3.2221546
-1.548442 -7.1488695 3.2322593
-1.4602244 -7.1655426 3.231451
-1.3730485 -7.1874127 3.2334719
-1.2157999 -7.1999426 3.2266006
26.983164 -9.1308365 3.3967733
9.0900078 -7.9676013 3.3000009
9.1759214 -7.9438787 3.3134327
9.3410711 -7.9871087 3.3553083
9.4444447 -7.9757018 3.3747973
5.4109602 -7.737618 3.3602479
5.453434 -7.6973529 3.3572304
1.4480568 -7.4621925 3.3589711
9.5939598 -8.0016346 3.4106154
9.9757757 -8.0133867 3.4933131
9.7061691 -7.9947491 3.4330018
9.8283825 -7.9947 3.4588118
4.4729857 -7.7095199 3.4178696
0.13408348 -7.3071699 3.4702997
0.24672075 -7.3215008 3.4785211
0.36034518 -7.3433762 3.4911032
-1.5488521 -7.2048078 3.499253
-1.1372725 -7.2061462 3.4640803
-1.0491437 -7.2221489 3.4653671
-0.93754888 -7.2320743 3.4627934
-0.84621471 -7.2215014 3.4524989
-0.75785613 -7.234941 3.4542148
-0.6479578 -7.2582498 3.4602196
-0.53543317 -7.2520761 3.4529281
-0.44621721 -7.2558494 3.4518557
-0.35720414 -7.2616801 3.4522843
-0.24622339 -7.2799411 3.4587901
-0.13467897 -7.291348 3.4627934
-0.045190006 -7.2924519 3.4627934
0.044278052 -7.2924576 3.4627934
-1.5828767 -7.1493058 3.4769483
-1.4522516 -7.1833377 3.4799509
-1.3373647 -7.1804018 3.4681551
-1.2493038 -7.1971626 3.4685841
-1.1810282 -7.1963582 3.4627934
10.088243 -8.0023851 3.5154359
10.22753 -8.0111237 3.5467768
8.6949158 -7.9925847 3.5455039
8.7771215 -7.9693437 3.5590177
8.8857489 -7.9690533 3.5831699
10.322278 -7.9836302 3.5625789
2.4537096 -7.5458755 3.5062962
2.5329406 -7.5524983 3.5200384
1.3642482 -7.4570241 3.5996237
-14.672084 -6.368093 3.528317
-14.691122 -6.2695146 3.5235779
9.1558695 -8.0107727 3.6521766
10.524409 -8.0372448 3.6152525
8.9968529 -7.9696336 3.6081848
9.2570276 -7.9995313 3.6728787
3.4695196 -7.6072278 3.6946459
1.4382553 -7.4725075 3.6133497
-0.34680295 -7.301857 3.6830053
-0.14496499 -7.3033829 3.6803806
-0.032980345 -7.3149252 3.6854796
0.056771562 -7.3125467 3.684355
0.14662936 -7.3171034 3.6872797
0.23678061 -7.3259096 3.692904
0.30453491 -7.3319321 3.6971784
-1.3529693 -7.2090249 3.6955287
-1.241122 -7.2225342 3.6922288
-1.1514139 -7.2310472 3.6890793
-1.062506 -7.2441936 3.6888542
-0.95152599 -7.261498 3.6898291
-0.83894694 -7.2658329 3.68503
-0.74866945 -7.2653646 3.6798556
-0.65876091 -7.2664461 3.6760311
-0.54643577 -7.2649512 3.6706316
-0.4350805 -7.2756577 3.6722064
-0.25690889 -7.2979765 3.6791806
-1.5309163 -7.180439 3.6989782
-1.4862866 -7.1870737 3.6976283
9.3962717 -8.019681 3.7085321
9.500226 -8.008173 3.7300966
9.6169043 -8.0061064 3.7565491
9.7612848 -8.0254135 3.7936404
2.3998303 -7.4969268 3.737741
0.37373012 -7.3626761 3.7142763
-1.6579959 -7.2309465 3.7376733
-1.5977434 -7.2747102 3.7525213
-1.4440899 -7.2056904 3.7025776
8.718091 -8.0283747 3.8782728
9.8921347 -8.0317764 3.8252683
10.01446 -8.029644 3.853446
10.121359 -8.0138245 3.8755856
8.7939043 -7.999032 3.8900909
4.4221301 -7.6157413 3.8914833
1.4619044 -7.4052 3.8029149
10.249566 -8.0135117 3.905776
8.8817034 -7.9798584 3.9071965
8.9880791 -7.9763088 3.9323881
9.0968876 -7.9736319 3.9585128
9.2081556 -7.9717841 3.9855704
10.334934 -7.9785647 3.9195774
3.4509666 -7.5970373 3.962074
-0.16190878 -7.3131247 3.9419899
-0.094530202 -7.3094983 3.9393806
0.084861897 -7.3078561 3.9384317
0.26424375 -7.3053322 3.9393806
0.33298543 -7.3342113 3.9564588
-1.3469857 -7.2081299 3.9517148
-1.2545031 -7.2016611 3.9393806
-1.1418757 -7.2074175 3.9325018
-1.0526648 -7.2160931 3.9298928
-0.96314812 -7.2219248 3.9263346
-0.85178208 -7.2318587 3.9241998
-0.73986387 -7.2353725 3.919456
-0.6509971 -7.2434673 3.9192188
-0.56192929 -7.2495966 3.9185071
-0.45111194 -7.2643337 3.9223022
-0.33928764 -7.263422 3.9185071
-0.25101534 -7.2929921 3.9325018
-0.027162137 -7.2814145 3.9239626
0.039923728 -7.2906337 3.9289439
0.15177399 -7.2908897 3.9298925
0.21899134 -7.2927375 3.9317904
-1.4483217 -7.1422596 3.9272833
-1.2076675 -7.1935964 3.9308414
26.716625 -9.244607 4.0537467
9.4737492 -8.0004482 4.0577245
9.3255186 -7.9738102 4.0151162
6.0299559 -7.8250241 4.0899272
3.8392498 -7.6871099 4.0800309
3.9039135 -7.6980515 4.0984755
2.4463637 -7.5980258 4.0215869
2.6791792 -7.5219326 4.0229368
0.45124263 -7.4249358 4.0086422
1.0327659 -7.4692135 4.0634346
1.1468158 -7.4499717 4.0620914
1.257624 -7.41189 4.0513382
1.3261206 -7.4017663 4.0522866
1.51884 -7.4230514 4.0831223
1.3708699 -7.390028 4.0503893
1.4171836 -7.3866649 4.0532355
16.654493 -8.5455875 4.1293306
8.4560108 -8.0057173 4.1441493
8.5359392 -7.9826393 4.1592374
5.4344206 -7.7428069 4.1800709
6.3597617 -7.7492199 4.1503658
3.9560366 -7.6835899 4.1036224
1.6505837 -7.4805002 4.12819
1.7430023 -7.4631233 4.1300879
1.8615589 -7.4526234 4.1395755
0.17415071 -7.3693399 4.1960492
3.4733324 -7.6120687 4.2155123
0.35750362 -7.4157982 4.2262263
-1.2765909 -7.3173637 4.2282047
-0.55174059 -7.3872294 4.2168269
-1.4259486 -7.2502847 4.2061911
-0.53593707 -7.3952565 4.4993205
0.36917621 -7.3224239 4.4489999
5.7087936 -7.8205538 4.8782778
1.3035178 -7.5299115 4.8834453
1.4616777 -7.4836082 4.8726759
1.528809 -7.4616184 4.867291
5.0417085 -7.7608628 4.9873204
2.9536893 -7.6278963 4.9636226
1.9775667 -7.514987 4.9658322
2.0247378 -7.5067792 4.9685249
2.1249635 -7.5105567 4.9879098
2.0723314 -7.4998999 4.9722943
-0.52036077 -7.3069057 4.9802132
-0.45283747 -7.3072233 4.9774022
-0.38525373 -7.305336 4.9734664
-0.25148383 -7.334516 4.9893966
-0.13916661 -7.3463869 4.9953938
-0.048995122 -7.3463011 4.9945502
0.041171499 -7.3442817 4.9931445
-1.4139169 -7.2036753 4.9908957
-1.1481704 -7.2529197 4.9923949
-1.0361464 -7.2655106 4.98949
-0.94510299 -7.2637367 4.9799318
-0.85563922 -7.2727356 4.9785266
-0.76578355 -7.2773399 4.9748721
-0.65414566 -7.2894111 4.9757156
-0.56486624 -7.2994528 4.9774022
-1.5470039 -7.1798434 4.9933319
-1.4589125 -7.1989164 4.9937067
10.381227 -8.1344366 5.057344
10.47082 -8.1014395 5.0766783
8.2528801 -8.0293598 5.0880699
9.2069006 -8.0408039 5.0607686
10.547786 -8.058012 5.0899258
6.9643407 -7.9259477 5.0099626
5.2093668 -7.807518 5.0580053
6.153039 -7.8579159 5.0283337
6.2315049 -7.809041 5.0335078
6.3315043 -7.8352575 5.0753527
7.0725665 -7.8526411 5.0181122
7.1668735 -7.8598266 5.0507112
4.2982721 -7.7138553 5.0266514
4.3647676 -7.7213812 5.048913
4.4563074 -7.7165728 5.0724115
4.5489812 -7.7123413 5.096899
5.2704878 -7.7950969 5.0708141
5.3346372 -7.7865763 5.0864692
3.1859424 -7.6636295 5.0362511
3.2898822 -7.6475158 5.0518141
3.3261223 -7.6029053 5.0357323
3.4679036 -7.6069479 5.0730839
2.1867106 -7.5516057 5.0239878
2.2545695 -7.5258684 5.0204878
2.3566799 -7.5294046 5.0417576
2.4576778 -7.5267463 5.0597963
2.5409472 -7.5457788 5.0880666
3.3768797 -7.5917268 5.0419574
3.548244 -7.5972223 5.0881286
0.88625568 -7.404881 5.0701699
1.1179186 -7.4069195 5.092659
0.15417419 -7.3589883 5.0042014
0.26763394 -7.3726201 5.0156336
0.35874823 -7.38241 5.0249104
0.44965649 -7.3832302 5.0288458
0.54001868 -7.3742695 5.0268784
0.63188946 -7.3835659 5.0381227
0.74675459 -7.389677 5.0495548
0.83912522 -7.3953886 5.0600495
0.95287967 -7.3848939 5.0622988
1.0461249 -7.3914733 5.0752296
-1.3530943 -7.2460203 5.0114169
-1.2620922 -7.2506723 5.0035458
24.840836 -9.1502638 5.1457372
21.637728 -8.8482332 5.1568704
16.839235 -8.6440926 5.1675434
8.5843544 -8.0003147 5.1852765
9.3805981 -8.0915813 5.1288576
9.4905558 -8.0854006 5.1617546
7.2995234 -7.9073019 5.1099043
7.3935471 -7.9112024 5.1416454
7.4953418 -7.9221196 5.178534
8.3611822 -7.9862814 5.1092896
8.4765577 -7.9975982 5.1497083
6.4218779 -7.8480973 5.1090984
6.5476389 -7.8530378 5.1513929
4.6457987 -7.7132635 5.1255913
4.7443409 -7.7153988 5.1557684
4.8429117 -7.7154951 5.1854506
5.396872 -7.7746687 5.1002264
5.4546032 -7.7558088 5.1097145
5.5179248 -7.7444196 5.1244206
5.6474848 -7.7736936 5.1780272
3.6697927 -7.6124053 5.1280737
3.7584548 -7.6161976 5.1537533
3.8509092 -7.6259851 5.1841016
2.5934968 -7.5483747 5.1004515
2.6489608 -7.5585613 5.1182213
2.7300234 -7.5659127 5.1400299
2.833025 -7.5594535 5.1588764
2.9385014 -7.557518 5.1817617
3.6050553 -7.5969338 5.102654
1.1655289 -7.4138088 5.1022167
1.238425 -7.430871 5.1216135
1.3332229 -7.435874 5.1359501
1.4286044 -7.4408774 5.1511307
1.5486274 -7.4471765 5.171371
1.6684691 -7.4484291 5.189362
25.409805 -9.183176 5.2518272
22.202663 -8.9206314 5.2783656
19.196815 -8.7648106 5.2029428
19.499111 -8.758646 5.2702088
17.016788 -8.6037216 5.2057319
17.366327 -8.6470633 5.2963305
9.6347237 -8.1067266 5.2130122
8.7032681 -8.0119181 5.2273116
8.8152018 -8.0155935 5.2649007
8.9172974 -8.0090265 5.2964268
9.7382908 -8.0923347 5.242084
9.8563271 -8.0886984 5.2788062
7.5844254 -7.9183836 5.2064147
7.683176 -7.9235787 5.2407298
7.7721491 -7.9175434 5.2681813
6.6912913 -7.8769398 5.2071857
6.7738557 -7.8756814 5.2337322
6.8619342 -7.8797665 5.2643285
6.9420471 -7.8736873 5.2886252
4.9478993 -7.7240925 5.2215633
5.0549469 -7.7334404 5.259161
5.1605964 -7.7387195 5.2947793
5.7638025 -7.7823167 5.2188253
5.8457828 -7.7925768 5.249661
5.9243765 -7.7972155 5.2771759
3.9423518 -7.6315517 5.2123747
4.0628004 -7.6335487 5.2473917
4.1520743 -7.6311817 5.2717743
4.2320948 -7.6105347 5.2842245
3.0479255 -7.5626812 5.2105703
3.160737 -7.5733309 5.2442245
3.2356308 -7.5563478 5.2528405
3.3287694 -7.5802069 5.290534
1.7709931 -7.4748716 5.2225332
1.8650734 -7.4626098 5.2295613
1.964439 -7.4691415 5.2506447
2.0682306 -7.4891253 5.2821298
2.1416328 -7.4857087 5.2933741
-0.74021453 -7.3086481 5.2418361
-0.6505003 -7.3171787 5.2418361
-0.56030035 -7.3201475 5.2386413
-0.44731078 -7.3175321 5.2312841
-0.33490244 -7.320879 5.2293482
-0.24528372 -7.3317599 5.2345753
-0.15532038 -7.3354383 5.2354469
-0.065469787 -7.3583622 5.2508392
0.047370452 -7.3522034 5.2463861
0.16054577 -7.3691154 5.259552
0.2513648 -7.3787937 5.2682648
0.34168398 -7.3706818 5.26507
0.4327299 -7.37609 5.2723303
0.52472448 -7.3917422 5.2877226
-1.5490763 -7.2187357 5.2682648
-1.4590914 -7.2308178 5.2636175
-1.3270602 -7.2636571 5.2688456
-1.2337229 -7.2553215 5.25142
-1.1443331 -7.2683086 5.2502584
-1.0550684 -7.2818017 5.2502584
-0.96411717 -7.2829056 5.2421265
-0.85105532 -7.2862697 5.2345753
-14.681866 -6.3692937 5.2370677
-14.727664 -6.2820706 5.2395558
19.926376 -8.8040333 5.3709884
17.70923 -8.6826105 5.3845587
10.134465 -8.1108923 5.3740544
9.027854 -8.00879 5.3328032
9.1449318 -8.0129223 5.3728175
9.9797068 -8.0879889 5.3182058
7.8848963 -7.9344215 5.3115039
7.9757166 -7.9279222 5.3398137
6.0476818 -7.8090787 5.3227177
