# .PCD v0.7 - Point Cloud Data file format
VERSION 0.7
FIELDS x y z
SIZE 4 4 4
TYPE F F F
COUNT 1 1 1
WIDTH 316
HEIGHT 1
VIEWPOINT 0 0 0 1 0 0 0
POINTS 316
DATA ascii
-7.7981138 15.487144 0.75403178
-8.5215588 15.705175 0.7770142
19.607756 3.404912 0.86542481
19.539942 3.6406982 0.8643387
-8.1489944 15.272936 1.2074628
-8.6293421 15.480215 1.2362003
19.537985 3.1288223 1.3801663
7.0865436 8.2878437 1.563588
7.1489258 8.2576771 1.5661429
7.2444801 8.2650194 1.5759366
6.9912796 8.3825445 1.5651493
7.0393891 8.3357077 1.5644397
6.9316421 8.4683485 1.5691946
19.489214 2.7540994 1.8328526
19.476873 2.8743579 1.8333162
7.1371779 8.2499247 1.8470334
19.502661 2.3838289 2.3428595
19.465015 2.5005403 2.3401363
-1.2890342 11.16266 2.4788048
-0.95990306 10.991767 2.720324
-0.89228374 10.995514 2.7198453
-0.75621825 10.990137 2.7160153
-0.82494491 11.002718 2.720324
-3.4311337 11.903522 2.7327816
-3.3704715 11.968529 2.7429063
19.789371 1.9133433 2.8508229
-2.2406149 11.374704 2.8583272
-2.1339021 11.38489 2.8558137
-2.553225 11.469831 2.8971069
-2.4460273 11.485781 2.8953116
-2.3572402 11.412144 2.873049
-2.033062 11.426942 2.8615589
-1.0539089 10.900393 2.9897535
-2.8535023 11.482394 2.9170952
-2.7424982 11.486511 2.9115894
-2.6677928 11.485153 2.9070411
-3.1436594 11.581573 2.9587474
-3.0603561 11.554654 2.9470177
-2.9753168 11.518691 2.9331336
-3.3214321 11.66819 2.9910638
-3.2508154 11.692092 2.9920213
-1.8255494 11.039581 3.0548053
-1.7503517 11.003891 3.0419004
-1.9063107 11.104235 3.0758748
-3.588274 11.777829 3.0355887
-3.4369547 11.798604 3.0298436
-3.520098 11.813582 3.0391793
-0.89523566 10.505081 3.1651049
-2.4431307 11.297839 3.1556752
-2.370791 11.298455 3.1517248
-2.2245026 11.288837 3.1411901
-2.826009 11.368308 3.1980774
-2.7571092 11.389185 3.199131
-2.6458364 11.386772 3.1914935
-2.5350525 11.384332 3.184119
-2.3019972 11.315625 3.1525149
7.307426 6.8476686 3.2770936
6.9942966 6.969316 3.2310646
6.9647841 7.0256004 3.2372847
-0.84087366 10.638319 3.2036335
-3.0450306 11.352567 3.2088757
-2.9344645 11.357182 3.2024231
-3.3071511 11.480922 3.2618127
-3.2199178 11.441566 3.244957
-3.1455629 11.446224 3.2407432
-3.3944426 11.517785 3.2781415
7.6512947 6.825069 3.3551569
-0.80536157 10.307114 3.3831475
-1.9402913 10.844081 3.3071434
-1.8037723 10.847234 3.3011053
-1.8944055 10.975647 3.3436594
-3.5701816 11.587738 3.3102722
-3.4992917 11.61035 3.3105357
-28.419151 22.212461 3.3588083
-1.0003418 10.346357 3.4014971
-0.93658191 10.349462 3.400564
-1.4340621 10.45874 3.454524
-2.9259264 11.141332 3.4580956
-2.8622613 11.177632 3.463846
-2.7852745 11.16153 3.453495
-2.5681884 11.162371 3.4385436
-2.7246528 11.210984 3.4635584
-2.6496389 11.201393 3.4555078
-4.2778831 11.794001 3.4251008
-4.1821532 11.754587 3.4061382
-4.4501748 11.814644 3.446697
-4.3692355 11.819106 3.4401128
7.4855051 6.5746584 3.5456617
7.3454466 6.6130719 3.5174975
7.1740961 6.784873 3.5141447
7.2424345 6.7242775 3.5171623
7.1282806 6.8669162 3.522527
7.0769091 6.9441481 3.5285621
5.0677199 7.4847274 3.7422147
5.1135502 7.4534912 3.7422147
-1.6605767 10.337634 3.7262139
-1.5610313 10.324123 3.7159877
-1.4615842 10.30722 3.7049232
-3.0507078 10.969019 3.7257233
-2.9430537 10.972374 3.7174814
-2.8406646 10.993872 3.7157707
-3.4126432 11.076416 3.7927454
-3.1687233 11.000364 3.7460942
-2.7405894 11.024687 3.7174814
-3.2713568 11.100139 3.7868361
-4.4631724 11.601045 3.7315342
-4.3498449 11.624521 3.7260714
-4.2482243 11.679432 3.7309592
-4.1507316 11.633113 3.707957
7.950809 6.1797915 3.8614836
3.9507303 7.877214 3.8941107
-3.6622012 11.152587 3.8412626
-3.5482039 11.150928 3.829289
-3.8492262 11.254286 3.8922679
4.1971979 7.8220029 3.9226055
3.8479242 7.9752378 3.9129052
3.690536 8.0231094 3.9023964
3.8157902 8.0342264 3.930285
-1.682259 10.184108 3.9581549
-1.5529319 10.176294 3.9474137
-1.4557688 10.166547 3.9382837
-1.8838037 10.22947 3.9885886
-1.630874 10.26432 3.9853661
7.6982465 6.0842776 4.0623856
7.687459 6.1527605 4.076539
-2.0310166 10.316433 4.0319114
-1.9662801 10.321363 4.0290475
-2.1930974 10.460707 4.0985074
-3.4065142 10.878724 4.0569749
-3.2573419 10.868268 4.0378633
-3.1368775 10.827597 4.0118785
-3.0326278 10.840192 4.006011
-2.9316969 10.863964 4.0046701
-3.6434326 10.925895 4.0988855
-3.5619893 10.904163 4.0824566
-3.4895618 10.908765 4.076086
-3.3446674 10.915635 4.0630097
4.0049052 7.6602702 4.1044803
3.9416597 7.7700658 4.1370797
4.0000157 7.7666144 4.148232
3.8384275 7.8632698 4.1548805
-1.481223 9.9848442 4.1790547
-1.425518 10.033079 4.1955032
-1.3629345 10.034313 4.1924434
-1.2696694 10.039973 4.1897659
-3.7349882 10.975576 4.1260438
-4.276269 11.196792 4.2655234
-4.2107935 11.231641 4.2688761
5.638041 6.6395397 4.388515
-1.4279943 9.7350121 4.3478069
-1.3733222 9.7798223 4.3639746
-1.257732 9.8313236 4.3797379
-4.4723229 11.292378 4.3225222
-4.3879228 11.280974 4.3077693
-4.5704136 11.336374 4.3500156
5.7612901 6.5775208 4.4053879
5.7278342 6.6208525 4.4107871
-1.4473836 9.5594454 4.5908928
-4.4627361 10.929223 4.5269051
-4.3404598 11.013992 4.5396152
-4.2245288 11.016047 4.5242195
-4.1548824 11.036518 4.5220714
5.840457 6.3565965 4.6519227
5.7502599 6.4146795 4.6424346
-1.3977832 9.6307249 4.6209183
-3.5232301 10.664579 4.64994
8.4621191 5.3215356 4.7465963
-4.232161 10.773767 4.7922382
-4.1633143 10.792637 4.7891779
8.1349697 5.2757225 4.8850269
7.7932324 5.5435457 4.8184352
6.6274662 6.0359836 4.8307695
5.9776239 6.1904836 4.8985243
6.5871844 6.1110878 4.8421555
5.7797899 6.2873325 4.8614216
5.8558049 6.2535005 4.8767576
5.9251313 6.2119522 4.8866515
5.7318172 6.3515434 4.870079
-4.4472656 10.83018 4.8471298
-4.3445048 10.863411 4.8438787
8.5125055 5.0149369 4.977715
8.3966856 5.1572199 4.9646668
8.3078451 5.2441411 4.9498186
8.1651335 5.3667417 4.922822
8.289052 5.3036819 4.9579177
6.2854815 6.1218424 4.9944959
5.7143703 6.4505506 4.9054499
1.6491807 7.9615879 4.9337931
1.7707549 7.9332829 4.9324965
1.8201647 7.9256015 4.9345713
8.7883034 4.8909421 5.0672536
8.647665 4.9877968 5.0296831
5.5920453 6.1858544 5.0601144
5.6796951 6.1677437 5.0878692
5.5625257 6.2296152 5.0678964
3.5298767 7.0596771 5.0439119
3.6116261 7.0599198 5.0676045
1.1381936 8.2702208 5.0658212
-28.617416 21.031916 5.0924482
6.3144302 5.7378874 5.1773572
5.8384128 6.0730386 5.1119919
5.7535048 6.1336279 5.1031728
5.8275309 6.1366448 5.1353369
5.5903583 6.3386464 5.1285925
1.6734332 7.8893867 5.1537609
1.7433248 7.8616838 5.1459532
1.8404284 7.8429823 5.1481066
1.942342 7.8431101 5.1634536
1.5569861 7.9389143 5.1699152
1.625333 7.9011569 5.1548376
1.1466833 8.0485201 5.1952233
1.2434286 8.0213528 5.1871462
8.3725033 4.8378778 5.2109981
8.4937048 4.8042231 5.2586746
8.3515253 4.9288778 5.2259412
5.2963657 6.2894974 5.254456
5.3386846 6.2613692 5.2582254
2.9364872 7.1404753 5.2489581
1.1505997 8.0763206 5.2132626
1.2993326 8.0551662 5.2140703
8.7428455 4.631361 5.3317318
8.6787853 4.7347155 5.3276992
8.6637278 4.8304663 5.345489
6.9653378 5.3816652 5.3412895
6.9059272 5.4037557 5.3210578
6.8464942 5.5285997 5.3399925
6.0152478 5.8647847 5.3686132
1.4412544 7.7179174 5.3377905
1.5276419 7.7830853 5.3923264
6.6246114 5.4323258 5.4746928
5.1713676 6.0633969 5.4179077
5.1182332 6.1524849 5.440959
5.1035233 6.2509222 5.4862185
2.4122758 7.3095579 5.4924707
1.6790054 7.7924523 5.419313
1.5860459 7.8262482 5.4288712
1.6343755 7.8179884 5.4299955
8.7032681 4.5733757 5.5965466
8.6378193 4.6408882 5.5817056
7.7501326 4.8221483 5.5389423
7.1282263 5.0817575 5.5942349
6.9312787 5.2025552 5.5382333
6.7174096 5.4398332 5.5236945
5.8440886 5.7666912 5.5817966
5.7779717 5.807354 5.569428
5.051919 5.9704552 5.580759
2.8758974 7.1977696 5.5308065
2.9341145 7.1517639 5.515995
3.0050545 7.1368623 5.525579
2.4664354 7.3223901 5.513381
2.5224302 7.3394508 5.5377765
5.0315275 6.1347537 5.6614966
0.64927518 7.8491497 5.6199665
0.74399638 7.8247938 5.6086397
7.7685723 4.6521573 5.7864709
7.8688025 4.6468215 5.8397803
4.7960162 5.9572525 5.800878
4.7318978 6.0275655 5.8123598
2.0845845 7.0573649 5.8471632
2.1615424 7.077538 5.8801346
2.242816 7.0333061 5.8658266
2.0345523 7.1289253 5.8907108
6.6598911 5.0382466 5.958889
6.626195 5.109251 5.9705062
5.7075548 5.4696445 5.9960737
5.3542194 5.7660065 5.9682751
5.292923 5.8062134 5.9592099
1.8867867 7.1929622 5.9087515
1.8301904 7.2483196 5.9401679
6.0972686 5.1644597 6.0607362
4.6513472 5.9746499 6.0163755
4.7605605 5.9251595 6.0393934
4.6184173 6.0080433 6.0213528
4.5934258 5.7018523 6.1809425
1.8684257 6.9980927 6.114502
1.935014 6.9886608 6.1215973
1.613315 7.0785131 6.1286931
1.7797751 7.0101252 6.1054711
1.8331542 7.0390043 6.1403041
2.0405481 7.0330029 6.1819105
1.4716011 7.163516 6.1735244
1.5561389 7.1299868 6.1606236
6.1568756 4.9395652 6.2720609
6.0499616 5.0395761 6.2565084
4.689816 5.6774569 6.2164211
2.0635414 6.7820063 6.2564168
2.1225114 6.7520294 6.246491
2.0050647 6.8144093 6.2689891
1.6475508 6.9114537 6.2706432
6.1291404 5.0421515 6.3062768
5.2052598 5.4323821 6.3512378
1.9748189 6.8669353 6.3060446
1.7428316 6.9328918 6.3090219
1.8545451 6.9261723 6.3281016
1.9389337 6.9012995 6.3265572
5.5825887 5.2166176 6.4499316
1.5883991 6.740746 6.4942575
1.6485226 6.7183752 6.4870749
1.5286254 6.7653627 6.5041761
6.3340197 4.7568998 6.6869907
1.3075961 6.7004595 6.6923575
6.3124361 4.5840445 6.885036
6.1946726 4.6750698 6.8493042
6.2497835 4.6269526 6.8628693
6.6003251 4.3729582 6.9876003
6.4214611 4.5439143 6.9426045
5.6830735 4.7988515 6.9751358
5.6405926 4.8525743 6.9775305
6.6389565 4.3401718 7.0001726
6.0672617 4.4586301 7.0606408
5.9392805 4.5932441 7.0408039
6.0003977 4.5819488 7.0797939
5.875145 4.6599941 7.0321393
5.7553363 4.769825 7.0096798
5.821938 4.7353168 7.0373836
6.2590704 4.3386254 7.1416993
