# .PCD v0.7 - Point Cloud Data file format
VERSION 0.7
FIELDS x y z
SIZE 4 4 4
TYPE F F F
COUNT 1 1 1
WIDTH 1485
HEIGHT 1
VIEWPOINT 0 0 0 1 0 0 0
POINTS 1485
DATA ascii
-3.9416649 2.7567809 -1.0989977
-2.8058403 2.7151933 -1.0982369
-1.7465502 2.7627482 -1.09749
-1.6827118 2.7928462 -1.0947845
-0.54620498 2.7393761 -1.0958793
-0.47953358 2.7563124 -1.0975531
-0.32632604 2.7755296 -1.0963358
-0.22438447 2.791193 -1.098527
-0.14660358 2.7845867 -1.093962
-0.043967739 2.7821999 -1.0916491
0.05003668 2.7885079 -1.0941446
0.14410125 2.7850275 -1.0940837
0.24686094 2.781388 -1.0954837
0.34825531 2.7642648 -1.0930489
0.4489007 2.754591 -1.0949481
0.55774969 2.744401 -1.0987096
0.65347159 2.7199774 -1.0974313
1.6729842 2.786314 -1.0912302
1.743494 2.7300308 -1.0876759
2.117846 2.7949662 -1.0976014
-2.7053335 2.8180175 -1.0987785
-2.6840172 2.8303728 -1.0971539
-1.6361439 2.8322864 -1.0982858
-1.5454547 2.8542557 -1.089851
0.66667211 2.893497 -1.0954604
0.73754305 2.8764911 -1.095547
0.85425597 2.8534906 -1.0989218
1.3822968 2.893847 -1.0768007
1.4480633 2.8713689 -1.0797927
1.5455844 2.8440485 -1.0868589
1.6265726 2.8256989 -1.0947315
1.9779011 2.8761799 -1.092573
2.0569878 2.8393223 -1.0974519
2.4867587 2.8010576 -1.0535601
2.5088966 2.8789959 -1.0741385
-3.7555542 2.9668326 -1.0935407
-2.5627117 2.9461238 -1.0983273
-1.8454787 2.9818311 -1.0976014
-1.5026826 2.9017184 -1.0971718
-1.4375284 2.9281213 -1.0952619
-1.3497945 2.9648359 -1.0938296
-1.2774333 2.9863465 -1.0905935
-1.1848099 2.995961 -1.0817343
-0.44768643 2.9438326 -1.0985756
-0.34747711 2.9524317 -1.0967873
-0.24799442 2.9658561 -1.0980217
-0.14748342 2.9677391 -1.0962682
-0.084020458 2.9794495 -1.0996139
0.062067658 2.9718056 -1.0966374
0.1529181 2.961942 -1.0942146
0.24491644 2.9709194 -1.0998447
0.35297552 2.9506657 -1.0963604
0.4516581 2.9324448 -1.0946529
0.54773861 2.9264088 -1.0984025
0.61417735 2.9094648 -1.097018
1.1895969 2.9680524 -1.0736177
1.248634 2.9565425 -1.0776284
1.3362314 2.9351389 -1.0828483
1.7989774 2.9940012 -1.0932701
1.8535467 2.9599223 -1.0931507
1.9277773 2.9168797 -1.0943655
2.3684289 2.9845269 -1.0717016
2.4489865 2.9349799 -1.0752217
7.3812885 2.9664173 -1.0106012
7.4131923 2.9265347 -1.0124916
-5.382391 3.0757058 -1.0997814
-3.7032483 3.0189505 -1.0916473
-3.6456225 3.0662029 -1.0884175
-2.4504449 3.0358925 -1.0974246
-2.3859572 3.0894275 -1.0979662
-1.8206974 3.0031857 -1.0992442
-1.725371 3.0534675 -1.0977508
-1.6623312 3.095264 -1.0996923
-1.2308385 3.0040002 -1.0900099
-1.1330208 3.0267467 -1.085156
-1.0516264 3.064702 -1.0879411
-0.95309865 3.0818794 -1.0831666
0.79432201 3.0807018 -1.0682067
0.87726259 3.0869944 -1.0775434
0.95515555 3.0719121 -1.0801747
1.0519183 3.0501664 -1.0833576
1.1453782 3.0173287 -1.083676
1.5704315 3.0878484 -1.0843089
1.6410167 3.0620575 -1.0874155
1.7436378 3.0268524 -1.0933895
2.2484031 3.0579391 -1.0676401
2.3267915 3.0262508 -1.0737324
7.3519297 3.0071454 -1.0090889
-5.3257113 3.1747611 -1.099956
-5.2833796 3.1936269 -1.0952398
-3.6081636 3.1304874 -1.0914246
-3.5599811 3.166045 -1.088529
-2.8264647 3.1575272 -1.0975596
-2.7864823 3.1907952 -1.0971417
-2.3398001 3.1276982 -1.0986882
-2.2541325 3.1725686 -1.0947169
-2.1319957 3.1833177 -1.0776585
-1.6204917 3.108227 -1.0971533
-1.5489593 3.1332903 -1.0940468
-1.4465349 3.1671913 -1.0898649
-1.3634242 3.1901786 -1.085902
-0.84915417 3.11485 -1.0840685
-0.74363029 3.1417389 -1.0840579
-0.6418227 3.1387606 -1.0757183
-0.54649472 3.1640656 -1.0781375
-0.44847351 3.1738877 -1.0762914
-0.34937182 3.1723952 -1.0716442
-0.25121659 3.1736858 -1.0689704
-0.16718803 3.1880429 -1.0719202
-0.05627469 3.1899419 -1.0712624
0.041695125 3.1969914 -1.073554
0.14945453 3.1912138 -1.0727159
0.21843359 3.1948547 -1.0752091
0.35557899 3.1839156 -1.0757185
0.45148689 3.1606293 -1.0720263
0.54925042 3.1506951 -1.0738723
0.64772964 3.1427736 -1.0774373
0.74435729 3.1236384 -1.0782011
0.83388895 3.1153774 -1.0828483
1.3501694 3.193675 -1.0853543
1.449053 3.1544919 -1.0865791
1.525508 3.1169875 -1.0862007
2.0494008 3.1575556 -1.05884
2.153456 3.1252961 -1.0675859
2.5900228 3.1954529 -1.0653006
2.6532884 3.1727057 -1.0711925
2.7393084 3.1753395 -1.0861102
-5.2192016 3.2429237 -1.0901159
-4.1773539 3.2763262 -1.0965304
-3.5122392 3.2016745 -1.0858561
-3.4493415 3.2425487 -1.0816798
-2.7445574 3.2217729 -1.0961388
-2.6584435 3.2803233 -1.0935482
-2.1473346 3.2058892 -1.0853755
-2.0440896 3.2201593 -1.0728524
-1.9768071 3.2672901 -1.0741385
-1.3151014 3.2126646 -1.0865492
-1.2475083 3.2446029 -1.0880725
-1.1540761 3.2841959 -1.0896109
-1.0854768 3.2978587 -1.0866985
-0.13510741 3.2008247 -1.0756867
0.26842085 3.2028594 -1.079188
0.94688553 3.2519178 -1.0601135
1.0580665 3.2921371 -1.0823673
1.1475966 3.2590222 -1.081501
1.246681 3.2213967 -1.0812023
1.3535396 3.2019844 -1.0880926
1.7943166 3.2922912 -1.0546433
1.8527708 3.2553833 -1.0536144
1.9536968 3.2224355 -1.0599909
2.0178959 3.2160223 -1.0679109
2.2860434 3.288305 -1.0372202
2.3569803 3.2816219 -1.046434
2.4529035 3.2647572 -1.0576118
2.5517113 3.2488081 -1.0699389
-5.1627645 3.3411093 -1.0909892
-4.1326814 3.344898 -1.0981485
-4.0725336 3.3797693 -1.0930917
-3.406076 3.3017981 -1.0838515
-3.3447716 3.3228924 -1.0772434
-3.2675877 3.3681014 -1.0721947
-2.6130428 3.3275237 -1.0957628
-2.5326562 3.3502579 -1.0877398
-2.4504426 3.390425 -1.0834359
-2.3911707 3.3955164 -1.07558
-1.9224526 3.313669 -1.0775682
-1.8348184 3.3251472 -1.0682493
-1.7457319 3.3556895 -1.0639848
-1.6545357 3.3806937 -1.0587049
-1.1317449 3.3014426 -1.092374
-1.0358982 3.3176799 -1.0878934
-0.95121968 3.331779 -1.084533
-0.85692424 3.3491902 -1.0820985
-0.75528228 3.3806064 -1.0842491
-0.64747477 3.3824973 -1.0779763
-0.56290156 3.3891704 -1.0753475
0.45208901 3.3787274 -1.0669838
0.5467326 3.3745217 -1.0700306
0.65167487 3.3651676 -1.0728981
0.75541556 3.3469307 -1.0739735
0.84894919 3.3304951 -1.0757958
0.93725842 3.313113 -1.0777373
1.0064602 3.3048725 -1.0813218
1.29036 3.3868766 -1.0194433
1.3239528 3.3811059 -1.0213387
1.4601418 3.3875191 -1.0375848
1.5531504 3.3731561 -1.0445707
1.6521143 3.3419244 -1.0486187
1.7372468 3.3071725 -1.0507848
2.0366752 3.3740776 -1.0207354
2.1441827 3.3400846 -1.0279938
2.2429838 3.3123109 -1.0360502
2.8224843 3.3558364 -1.0018833
-5.1177468 3.4245281 -1.0924449
-5.0554776 3.4733789 -1.0881653
-4.0369496 3.4346983 -1.0947772
-3.944232 3.4828067 -1.0868212
-3.8626666 3.4963148 -1.0761007
-3.2310026 3.4131451 -1.0738281
-3.1553385 3.4372172 -1.066088
-3.0794401 3.4811273 -1.0619116
-2.3429728 3.4152012 -1.0726551
-2.2443261 3.4269884 -1.0609758
-2.1744516 3.4812176 -1.0630441
-1.6082953 3.4455545 -1.0695355
-1.5417124 3.439286 -1.0601488
-1.4538848 3.4693604 -1.058109
-1.3580009 3.4773245 -1.0500402
-0.51174986 3.4035707 -1.0772892
-0.44925654 3.4144821 -1.0779613
-0.35377333 3.4149461 -1.0746307
-0.24851544 3.4192395 -1.0730776
-0.14348888 3.4279294 -1.0739138
-0.048936337 3.433064 -1.0746756
0.045808312 3.4269986 -1.0727787
0.15115912 3.4308472 -1.0749295
0.25652781 3.4270692 -1.0757061
0.35003692 3.4088078 -1.0725846
0.40267882 3.4061952 -1.0735554
0.66892684 3.4944692 -1.0007603
0.74430144 3.4816337 -1.0014642
0.85334408 3.4674301 -1.0044428
0.95210165 3.4548075 -1.0080032
1.049423 3.434752 -1.0102372
1.1444598 3.4063501 -1.0107788
1.238371 3.4063947 -1.019511
1.3823566 3.4065282 -1.0340648
1.4169645 3.401685 -1.0365018
1.7470191 3.4703269 -1.0062816
1.8573308 3.4488392 -1.0145303
1.9549333 3.4259892 -1.0216131
2.8082664 3.4019713 -1.0078971
-7.0443316 3.530807 -1.0010232
-5.0075769 3.5087857 -1.084759
-4.9385843 3.5286798 -1.0768111
-4.8615651 3.5645583 -1.0694745
-3.9654751 3.5018065 -1.0926871
-3.8395441 3.5620368 -1.0817643
-3.7412996 3.5792632 -1.0694256
-3.0409503 3.523819 -1.0634707
-2.9602175 3.5607884 -1.0580137
-2.8741693 3.5895891 -1.0506632
-2.1250567 3.5212398 -1.0651753
-2.0393558 3.5494246 -1.0602361
-1.9414253 3.5793164 -1.0546033
-1.8476151 3.5882497 -1.0453057
-1.7644768 3.5876434 -1.0354651
-1.3153846 3.5271091 -1.0588402
-1.2436297 3.5317993 -1.0532217
-1.150413 3.5422573 -1.0476032
-1.0564302 3.5468118 -1.0409694
-0.95896471 3.534265 -1.0300709
-0.85710603 3.543798 -1.0255626
-0.75532025 3.5483818 -1.0204587
-0.65250695 3.5440536 -1.0136489
-0.55321324 3.5528207 -1.0113879
-0.45439187 3.5618546 -1.0100206
-0.34457061 3.5714428 -1.0092624
-0.25673354 3.5775683 -1.0088834
-0.15331475 3.5615909 -1.0027459
-0.03670742 3.57026 -1.0042803
0.061766937 3.563091 -1.0023849
0.18170284 3.5542552 -1.001031
0.23658313 3.5567293 -1.0026556
0.57389456 3.5220287 -1.0037388
0.62760735 3.5114164 -1.0033326
1.4428724 3.5863011 -1.0012003
1.5241008 3.5550699 -1.0017854
1.6702435 3.5031335 -1.0051284
-7.8361073 3.6605606 -1.0987562
-7.0333128 3.6613216 -1.0073245
-4.8455372 3.6218345 -1.0732301
-4.7743831 3.6607788 -1.0673493
-3.712815 3.6403456 -1.0739768
-3.6637349 3.6814518 -1.0727631
-3.4550886 3.6916175 -1.0443436
-3.370209 3.690733 -1.0323082
-2.8262568 3.6200156 -1.0493268
-2.744977 3.6291559 -1.0396748
-2.6541831 3.6467559 -1.0305424
-2.547261 3.6388416 -1.0148764
-2.4692948 3.6694973 -1.0105702
-1.7230322 3.6147029 -1.0370948
-1.6449128 3.6208167 -1.030012
-1.5478506 3.6420703 -1.024935
-1.4566516 3.6755905 -1.0239948
-1.3705019 3.6873705 -1.0188342
-7.7633562 3.7432761 -1.0949124
-4.7203655 3.7122691 -1.0653696
-4.6389327 3.7411711 -1.0572761
-4.5384884 3.7765889 -1.047465
-4.465621 3.7860754 -1.0386436
-4.3605661 3.7664464 -1.0222237
-4.2458844 3.7826431 -1.0088316
-3.6238909 3.7090845 -1.0710437
-3.5540128 3.7051387 -1.0604243
-3.326627 3.711046 -1.0293752
-3.2554598 3.7456243 -1.0250263
-3.1550181 3.7914813 -1.0187894
-3.0410061 3.7944019 -1.0043606
-2.4177794 3.7147393 -1.012686
-2.3415418 3.7212451 -1.0045562
-2.2814231 3.7521696 -1.0033309
-1.3186654 3.7220082 -1.0226786
-1.2505243 3.74716 -1.0231173
-1.1534438 3.7614686 -1.0189805
-1.0576874 3.7771955 -1.0159091
-0.9701283 3.7750225 -1.009474
-7.7366004 3.8185747 -1.0960467
-5.9434357 3.8337674 -1.0986996
-5.8378649 3.8679404 -1.0878775
-4.1726074 3.8338609 -1.0052798
-2.9701953 3.8249512 -1.0002477
0.51999307 3.8273985 -1.0003647
-7.3449659 3.9389036 -1.0588061
-5.747683 3.9362762 -1.082198
-5.0641994 3.9955635 -1.0020692
-7.3647041 4.0665836 -1.0687621
-5.6589608 4.0305171 -1.0792813
-5.5588517 4.0630198 -1.0696107
-5.4440751 4.0306096 -1.0522648
-5.3559971 4.0165105 -1.0399846
-5.2608814 4.0468488 -1.0310813
-7.3377876 4.1403275 -1.0703374
-7.3432398 4.2030134 -1.0748743
-7.2363186 4.2605247 -1.0668087
-7.1299458 4.3465137 -1.0608225
-2.1316133 4.3603125 -1.0024726
-13.404264 4.4158487 -1.0908843
-13.361796 4.4929285 -1.0896512
-7.084177 4.4086003 -1.0600033
-6.9909172 4.4403734 -1.0521266
-2.0584135 4.4144731 -1.0060463
1.8272518 4.4975152 -1.0026749
-13.323603 4.5712709 -1.0888035
-6.9284501 4.5209084 -1.0509925
-6.8721161 4.5749049 -1.048787
-6.796217 4.5848074 -1.0414774
-13.302832 4.6555719 -1.0894201
-6.7638626 4.6236229 -1.0408473
-6.6762443 4.6544371 -1.033916
-6.5959496 4.6892843 -1.0281187
-6.3425736 4.6872644 -1.0019053
-17.615704 4.7397881 -1.0071237
-13.169326 4.7452984 -1.0820216
-6.544486 4.743897 -1.0268584
-13.073724 4.8473072 -1.0777829
-0.1377143 4.8716612 -1.0066193
-0.092626177 4.8585472 -1.0036863
0.26429391 4.8385067 -1.0008545
-13.03161 4.9228544 -1.076781
-12.976034 4.9930544 -1.0747002
-9.2417374 4.9258218 -1.0988569
-9.1894693 4.9706063 -1.096248
-12.933085 5.0678511 -1.0736984
-9.1125889 5.0015364 -1.0907173
-9.0530548 5.0413885 -1.0872736
-8.9959745 5.0821667 -1.0841429
-12.89156 5.1430478 -1.0728506
-8.9275169 5.1160059 -1.0796556
-8.8710222 5.1561942 -1.0766294
-12.842208 5.2149248 -1.0713863
-12.774032 5.2787743 -1.0683807
-8.8332195 5.2069936 -1.0758989
-8.7614651 5.2739143 -1.073029
-12.73313 5.3535771 -1.0676872
-8.680851 5.371635 -1.0711508
-12.662216 5.4614019 -1.0659146
-8.6222506 5.4457598 -1.070055
-8.5811357 5.4937363 -1.0691158
-12.597781 5.5717211 -1.0647585
-8.5447626 5.5446615 -1.0688027
-8.485652 5.5805926 -1.065672
-17.298784 5.695498 -1.00547
-12.576997 5.6550474 -1.0659146
-8.4239397 5.6143527 -1.0622284
-8.332407 5.6647582 -1.0572193
-12.538434 5.7304544 -1.0656064
-8.2358074 5.7106552 -1.0515842
-8.1520262 5.7643347 -1.0476187
-8.0396185 5.834156 -1.0422966
-7.9608164 5.8896194 -1.0390615
-7.8602233 5.9278226 -1.0330091
-7.7532854 5.9599948 -1.0261216
-7.6781163 5.9775195 -1.0210083
-7.5827193 5.9783373 -1.0131816
-7.5334592 6.014823 -1.0115119
-7.4252596 6.0034075 -1.0019113
-12.163063 6.2505569 -1.0570519
-12.090059 6.3544068 -1.0557418
-12.039406 6.42237 -1.0547398
-11.965578 6.4776096 -1.0517342
-11.90376 6.5389066 -1.0498075
-11.853834 6.6064844 -1.0489599
-11.785301 6.6633911 -1.0464936
-11.714787 6.7187138 -1.0438734
-11.644902 6.7739244 -1.0413302
-11.594532 6.8401823 -1.0405595
-11.473627 6.8641047 -1.0334693
-11.398048 6.9142094 -1.0304637
-11.268785 6.9307389 -1.0226029
-11.190514 6.9775963 -1.019366
-11.10535 7.0194936 -1.0155127
-11.007503 7.0525408 -1.0105034
-10.905489 7.0819383 -1.0051087
-10.836844 7.1322756 -1.0027966
17.634109 2.1929283 -0.9810499
17.494583 2.2846673 -0.97404909
17.207199 2.3546073 -0.95883471
17.145973 2.4534969 -0.95624387
4.8951273 2.5930328 -0.98274624
17.073318 2.5501015 -0.95304668
4.9956169 2.607137 -0.99969012
12.641344 2.6465697 -0.99832678
17.017887 2.6486712 -0.95084167
12.584355 2.7558429 -0.99578357
16.984558 2.7503278 -0.94990456
12.569154 2.8334455 -0.99593771
16.963425 2.8538287 -0.94968408
12.55607 2.9521959 -0.99701661
16.93084 2.9552853 -0.94885719
12.539081 3.0702507 -0.99786437
16.920248 3.0605371 -0.9492982
12.517105 3.1464021 -0.99763316
16.919798 3.1677914 -0.95034558
12.468273 3.2563834 -0.99609184
16.915728 3.274586 -0.95122755
2.6741409 3.3849623 -0.98562324
2.7292728 3.3689456 -0.99063486
2.8469391 3.3223143 -0.99965584
12.393558 3.3590541 -0.99254674
16.94623 3.3884976 -0.95409399
1.6240258 3.4885452 -0.99660385
2.4771218 3.4959359 -0.97894102
2.5442123 3.4763274 -0.98428679
2.6214414 3.4250758 -0.98547477
12.325111 3.4625559 -0.98957968
16.940765 3.4956424 -0.95497602
-7.0101571 3.5676644 -0.99925882
-0.21024828 3.5372517 -0.99669874
-0.13453652 3.549459 -0.99913567
-0.051065851 3.553292 -0.999587
0.0070695989 3.5511887 -0.99886489
0.1375019 3.5411024 -0.99678898
0.28977865 3.5364554 -0.9980526
0.35397336 3.5215728 -0.99556148
0.45227498 3.520252 -0.99832332
0.51706725 3.5118742 -0.99845874
1.1862636 3.5903454 -0.97930431
1.2857599 3.5929639 -0.98833019
1.3480337 3.5919504 -0.99365795
1.4538149 3.571203 -0.9986096
1.5714929 3.5156846 -0.99735606
1.6037995 3.5010846 -0.99735606
2.3548694 3.5731773 -0.97777164
2.4328787 3.5244343 -0.97849554
3.1524038 3.5698085 -0.98366117
12.241552 3.5609891 -0.98545659
0.75790477 3.6909549 -0.97587782
0.84408206 3.6872718 -0.9797222
0.95478487 3.667125 -0.98143548
1.0520035 3.668633 -0.98845553
1.1380157 3.630444 -0.98538423
1.2447864 3.6175525 -0.99083734
2.1314092 3.6587214 -0.96746993
2.2539997 3.6346538 -0.97720367
2.9925182 3.6973073 -0.9824475
3.03372 3.6328626 -0.97759295
3.127111 3.6075225 -0.98608851
12.170502 3.6621051 -0.9824124
16.924856 3.6007698 -0.95530677
-2.2350826 3.7533414 -0.99809664
-2.165745 3.7672527 -0.99286222
-0.9139778 3.7468894 -0.99886036
-0.84906012 3.7282896 -0.99033594
-0.74825847 3.7624002 -0.99354506
-0.64254016 3.7725668 -0.9911508
-0.54915237 3.7831306 -0.99008524
-0.23209651 3.7802083 -0.98089218
-0.15117776 3.7912099 -0.98268902
-0.05800375 3.7920849 -0.98225033
0.058086082 3.7792556 -0.97892821
0.11636194 3.786232 -0.98105937
0.23345897 3.797307 -0.98532158
0.36127102 3.7852502 -0.98482013
0.43276268 3.7943802 -0.98908234
0.57313931 3.7825811 -0.99083734
0.65152889 3.7544162 -0.98692608
0.71342897 3.7044578 -0.97704786
0.86741948 3.7022645 -0.98482013
1.8955758 3.7967494 -0.96958596
1.9406667 3.7422447 -0.96318221
2.0503874 3.7270041 -0.97192466
2.8711586 3.7787254 -0.98022252
2.9468873 3.7337024 -0.98244756
12.080631 3.7566991 -0.97790402
16.912197 3.7066886 -0.95585799
-4.1148767 3.8512647 -0.99986482
-4.0457625 3.8806829 -0.9945662
-3.9622481 3.8951774 -0.98571575
-2.915062 3.8505645 -0.99751699
-2.8449209 3.8801839 -0.99377489
-2.1151149 3.8133156 -0.9963147
-2.0552332 3.8430405 -0.99575782
-1.9593312 3.8610046 -0.98926133
-1.8238292 3.8848679 -0.98057443
-0.45756447 3.8072414 -0.99315649
-0.35256749 3.821404 -0.99394625
-0.28091908 3.8105929 -0.98958379
0.00016593152 3.8035085 -0.98507082
0.16466461 3.8273485 -0.99217445
0.25005814 3.8126304 -0.98958379
0.30455029 3.807806 -0.98933303
0.48251393 3.8142343 -0.99572635
0.54087985 3.8059256 -0.995601
1.6842835 3.8982732 -0.97025418
1.751888 3.8581262 -0.96816045
1.8487104 3.8193684 -0.96951175
2.6995747 3.8889294 -0.97779524
2.755003 3.8666356 -0.98062706
2.8206892 3.8330202 -0.98295319
11.975772 3.8858931 -0.97320288
12.032647 3.8229043 -0.97590023
16.874525 3.8070939 -0.95503116
-3.9466479 3.9277506 -0.98781192
-3.8513451 3.9522686 -0.9790343
-3.760062 3.9789789 -0.97121739
-2.7487152 3.9487724 -0.99377489
-2.5462644 3.9880605 -0.97728956
-1.9254568 3.9125061 -0.9963147
-1.8916368 3.9040685 -0.99119169
-1.7438588 3.9319429 -0.98278332
-1.6439621 3.9665689 -0.98105711
-1.5678487 3.9889736 -0.97927511
-1.4539366 3.9833221 -0.96886206
-1.3716326 3.9844065 -0.9627924
1.477402 3.9771037 -0.96936321
1.5420486 3.9636116 -0.97173911
1.6362243 3.9526277 -0.97743756
2.580637 3.9991632 -0.9830544
2.6559889 3.9544277 -0.98391408
3.5316665 3.9640732 -0.94187123
11.921416 3.9492688 -0.97073674
16.845013 3.9092081 -0.95470041
-5.019516 4.0105243 -0.99807817
-4.9425559 4.0240493 -0.99009597
-4.8381834 4.0388079 -0.97904378
-4.7566981 4.0709224 -0.97259665
-3.7306433 4.0213261 -0.97313887
-3.6525087 4.0601974 -0.96888828
-2.6450403 4.0058064 -0.99148244
-2.513355 4.0175748 -0.97880661
-2.451334 4.0552988 -0.97875601
-2.3543494 4.0908737 -0.97489595
-1.5305494 4.0018897 -0.97894102
-1.3235582 4.0037136 -0.96346056
-1.2527772 4.0373135 -0.96585506
-1.1571023 4.080462 -0.96908474
-1.094982 4.0999427 -0.96958596
0.61937964 4.0947018 -0.94619828
1.0777268 4.0923948 -0.9669131
1.1538353 4.0753083 -0.9677484
1.2490959 4.0315652 -0.96435153
1.3544093 4.0192823 -0.9690848
1.4366746 4.017889 -0.97493172
2.3835742 4.0959048 -0.97880661
2.4451034 4.0570574 -0.97840208
2.5305738 4.0292935 -0.98275095
3.4456296 4.0893927 -0.94868374
3.5572817 4.0927072 -0.9620176
11.839703 4.0434618 -0.96707606
-4.7063837 4.1035161 -0.96998709
-4.6467853 4.1529942 -0.96814507
-4.5845876 4.1997585 -0.96584249
-3.6045644 4.1072798 -0.96947062
-3.5357487 4.1299205 -0.96452135
-3.4418182 4.1732707 -0.9596886
-3.3748958 4.1961174 -0.95532155
-2.2794893 4.1352906 -0.97530049
-1.0344126 4.1263433 -0.97198045
-0.95291018 4.179224 -0.97938651
-0.8539229 4.1549978 -0.9691962
-0.74990499 4.1648722 -0.96691304
-0.67568153 4.1939306 -0.97058833
0.63253057 4.1818619 -0.96635622
0.79123557 4.1831188 -0.97270429
0.85364217 4.1627679 -0.97092241
0.95377153 4.13272 -0.9690848
1.0314348 4.1213932 -0.97069967
2.1853607 4.1873121 -0.9755702
2.2474875 4.1498008 -0.97476107
2.3342466 4.1267724 -0.97927856
3.4038689 4.1420751 -0.95112926
11.751712 4.134613 -0.96295297
16.79771 4.1161032 -0.95481062
-4.5518274 4.2475204 -0.96714729
-4.4971962 4.2745843 -0.96384692
-3.3406601 4.259685 -0.96038723
-2.233434 4.2343011 -0.98878545
-2.1982136 4.2942419 -0.99640447
-0.62496585 4.2072077 -0.97181332
-0.5522632 4.2563648 -0.98066729
-0.44661635 4.2569809 -0.97799444
-0.34177423 4.2652111 -0.9776603
-0.15819125 4.2691283 -0.9761011
-0.07961607 4.2794414 -0.97793871
0.064657733 4.2742972 -0.97671366
0.15611742 4.2623768 -0.9745419
0.24656041 4.2390256 -0.97017986
0.34023285 4.268024 -0.9782728
0.44282293 4.2385092 -0.97370666
0.54695117 4.228054 -0.97409648
0.69086039 4.2166696 -0.97626817
0.74481225 4.2209501 -0.97931224
2.0785606 4.266006 -0.98015517
2.13867 4.2234292 -0.97779524
3.2909937 4.2920561 -0.95951384
3.3528869 4.2365022 -0.9585095
11.618624 4.248723 -0.95624816
16.771172 4.2188511 -0.95475554
-4.4486141 4.3335109 -0.96476793
-4.3923368 4.3850598 -0.96415395
-3.2519474 4.3072453 -0.95747596
-3.1744578 4.3417721 -0.95418614
-2.1466656 4.32342 -0.9970113
-1.9653625 4.3895636 -0.99337035
-1.8557843 4.3955975 -0.98548168
-1.6694585 4.3995781 -0.97192925
-0.25246611 4.3109441 -0.98666269
-0.027339397 4.3137283 -0.98562324
0.012318853 4.3021188 -0.98295033
1.6677343 4.3719196 -0.96646786
1.7225934 4.3937769 -0.97476107
1.8848062 4.3677454 -0.98254865
1.9486369 4.3319082 -0.98109907
2.0204239 4.31318 -0.98376226
3.1780024 4.3624959 -0.95753413
3.2643602 4.3394523 -0.96335685
11.533734 4.338377 -0.95251042
16.752703 4.3236737 -0.9551965
-4.4251184 4.4723368 -0.97735524
-3.1427014 4.4108357 -0.96082401
-3.0726254 4.4556975 -0.96021253
-1.9229116 4.403007 -0.99235898
-1.860359 4.4063244 -0.98790896
-1.7526957 4.413363 -0.98082936
-1.6280386 4.4124403 -0.97142357
-1.5499377 4.4515309 -0.973598
-1.4712374 4.4898467 -0.97587359
1.5492069 4.4678545 -0.97673327
1.6391313 4.460536 -0.98153728
1.7850993 4.4722605 -0.99458402
1.8536048 4.4448104 -0.99468517
2.9275835 4.4634738 -0.9469952
3.0379524 4.4508281 -0.9560203
3.1243298 4.4298935 -0.96169734
3.994365 4.4692688 -0.93115073
4.0256906 4.4490724 -0.93207175
11.439207 4.4638653 -0.94915795
16.723928 4.4258742 -0.95508629
-6.0197544 4.5639663 -0.9596867
-4.4300556 4.5326185 -0.98456991
-4.3781519 4.5628953 -0.98234409
-3.0184598 4.5240202 -0.9648416
-2.9820409 4.590436 -0.97113001
-2.8395226 4.5834465 -0.95654434
-1.4219167 4.5262442 -0.97991908
-1.3498869 4.5391822 -0.97813231
-1.2431241 4.5350895 -0.97127187
-1.1241667 4.5946326 -0.97698611
1.1190773 4.5999064 -0.97779524
1.2535179 4.5960479 -0.98396456
1.3609446 4.5986166 -0.99053854
1.470822 4.5563655 -0.98892027
2.6583095 4.5542188 -0.93553913
2.7537065 4.5241165 -0.93960047
2.851573 4.5271602 -0.94920778
3.8982055 4.583262 -0.93468136
3.9519198 4.5325589 -0.93416959
11.384731 4.5637989 -0.94807905
16.680075 4.5239635 -0.95414913
-6.1826549 4.628005 -0.98111111
-4.3479071 4.615551 -0.98503041
-4.2552028 4.6297183 -0.97684354
-2.9309559 4.6040034 -0.96824783
-2.7556019 4.6366763 -0.95689368
-2.6629832 4.6746254 -0.95444816
-1.1743736 4.6153889 -0.98366117
-1.058439 4.6329594 -0.98158783
-0.95407659 4.6315465 -0.97671646
-0.85042399 4.6298218 -0.97228324
-0.77081549 4.6798115 -0.97961569
0.85217255 4.6738043 -0.98128444
0.95423174 4.6631737 -0.98312169
1.0518906 4.6321912 -0.98113269
1.1659547 4.6074219 -0.98163843
1.2102793 4.6041017 -0.98325664
1.3428699 4.6065011 -0.9910779
1.4239309 4.6030879 -0.9951908
2.5689631 4.6602087 -0.94405472
2.6004367 4.616209 -0.93994975
3.7658367 4.6837206 -0.9336068
3.8481739 4.638526 -0.93626755
11.342667 4.6279182 -0.94692302
-4.2168102 4.7316122 -0.98456991
-4.1705208 4.767252 -0.98395586
-4.0790968 4.7503414 -0.97267342
-2.6132283 4.7555418 -0.96265811
-0.72093725 4.7387762 -0.99003279
-0.64582783 4.7319317 -0.98642558
-0.54473525 4.75033 -0.98760557
-0.44272804 4.7624478 -0.98790902
-0.35580793 4.7811866 -0.99026877
-0.28281707 4.7923098 -0.99154985
-0.017802348 4.7795591 -0.98720098
0.055644859 4.7911468 -0.98966199
0.14287418 4.7576604 -0.98312181
0.24641754 4.7779589 -0.98821235
0.34941849 4.7790394 -0.9897294
0.45399579 4.7917385 -0.99417949
0.55657721 4.7800679 -0.99397713
0.65417147 4.7322974 -0.98674583
0.75526685 4.7137184 -0.98602104
2.354399 4.7785602 -0.94507378
2.4507253 4.7513103 -0.9484508
2.5292866 4.7243447 -0.95069253
3.6539807 4.7802067 -0.9346813
3.7132437 4.7362022 -0.93491161
-4.0515795 4.8371649 -0.98019505
-3.7143145 4.8734183 -0.95187372
-2.5426259 4.8358574 -0.96929592
-2.4426792 4.8982525 -0.97104269
-2.3625538 4.8866987 -0.96294922
-0.22483423 4.8144975 -0.99549425
-0.18127003 4.8354678 -0.99943858
-0.062281281 4.8178959 -0.9951908
0.23426852 4.83319 -0.99943858
0.45493037 4.8021612 -0.99630332
2.066366 4.8941822 -0.94248265
2.1443293 4.8689117 -0.94385093
2.2496479 4.8634963 -0.95066351
2.3039715 4.8246193 -0.94850904
3.4802775 4.8547201 -0.9279272
3.5645263 4.8144727 -0.93058795
16.443449 4.8960485 -0.94720346
16.50386 4.8039913 -0.94896746
-4.059432 4.9691663 -0.99677336
-2.4829187 4.9033761 -0.97506034
-2.3041928 4.9192743 -0.9637062
-2.2415979 4.9426303 -0.96283275
-2.1418493 4.9634399 -0.95904803
-1.5954471 4.9944935 -0.93016773
1.9497068 4.9538774 -0.94449139
2.0232992 4.918026 -0.94344336
3.4419024 4.927875 -0.93376029
16.388264 4.9892907 -0.9457702
-4.0157514 5.0090046 -0.99731064
-3.9350603 5.0337143 -0.99255204
-3.7396412 5.0335755 -0.97413164
-3.6573904 5.0839782 -0.97290361
-2.0906115 5.0569215 -0.97078067
-1.9553621 5.0791016 -0.96554029
-1.8558153 5.0500579 -0.9545064
-1.749608 5.0461631 -0.94751912
-1.6558268 5.0235252 -0.93837768
-1.5530138 5.020709 -0.93235123
1.5953608 5.0781817 -0.94431674
1.6475343 5.0801044 -0.94746101
1.7406687 5.0491042 -0.94750464
1.8509165 5.0161872 -0.94856733
3.2772555 5.0806675 -0.9392097
3.3521762 5.0594301 -0.94281697
3.4270692 5.0371146 -0.94642437
16.334459 5.0826335 -0.94444722
-3.6144507 5.1230989 -0.97397816
-3.5688009 5.1585722 -0.97443867
-3.477741 5.195478 -0.97121513
-2.0401506 5.1114297 -0.97637045
-1.5261351 5.1574297 -0.9541862
-1.3403498 5.1635737 -0.94641292
-1.2628882 5.1225066 -0.93599033
-1.1603403 5.1590619 -0.93814474
-1.0389694 5.1585116 -0.93354487
-0.93814021 5.1451073 -0.92783862
-0.83932894 5.1385369 -0.92370456
1.019839 5.1921668 -0.93872702
1.1481394 5.1709595 -0.93971682
1.2462531 5.1616998 -0.94204593
1.3438078 5.1486993 -0.9440257
1.4356952 5.1136107 -0.94227886
1.5420071 5.1274772 -0.94990653
3.0695729 5.1668644 -0.9336068
3.1595604 5.1370416 -0.93688154
3.2295597 5.1093988 -0.93897945
16.2925 5.1794367 -0.94384086
-3.528414 5.2018452 -0.97643423
-3.434926 5.2350798 -0.97267342
-3.347039 5.2401838 -0.96591926
-3.2502429 5.2649364 -0.96118623
-3.1510415 5.2839642 -0.95571125
-1.4650947 5.2451186 -0.96615171
-1.3907467 5.2256637 -0.9593392
-1.1508697 5.2161398 -0.94763565
-0.75903088 5.2528367 -0.94158012
-0.65905613 5.2391896 -0.93680555
-0.54590267 5.2501478 -0.93645614
-0.43407884 5.2705116 -0.93820304
-0.3519029 5.2584209 -0.93497145
0.63932073 5.2877221 -0.94492817
0.70565033 5.2908044 -0.94693696
0.94963372 5.2611265 -0.94846535
1.077517 5.2307539 -0.94746101
2.961679 5.2759676 -0.93990046
3.0182872 5.2255383 -0.93744439
-4.7792501 5.3533077 -0.91167086
-3.0521982 5.3392591 -0.95540428
-2.9442225 5.3777261 -0.95241094
-2.8897002 5.3954844 -0.95079917
-0.30723208 5.3258462 -0.94641292
-0.24364477 5.3691497 -0.95351654
-0.14440478 5.3602581 -0.95130396
-0.029473247 5.3897333 -0.956195
0.15169574 5.3653092 -0.95223552
0.2497579 5.3471832 -0.94967365
0.34793532 5.3370891 -0.94885844
0.44636568 5.3333821 -0.94949895
0.5445196 5.3245864 -0.94955713
0.64102542 5.3019981 -0.94746101
0.75738835 5.3055029 -0.95077991
0.84240323 5.3168864 -0.95503044
2.5859768 5.3933482 -0.92915523
2.644659 5.3879113 -0.93237877
2.7452862 5.3824372 -0.93862122
2.8430459 5.3295794 -0.9383654
2.9144518 5.3056169 -0.94036096
16.204966 5.3714409 -0.94251788
-4.7259488 5.4260998 -0.91412842
-4.6275125 5.4466591 -0.90795314
-2.8321354 5.4069333 -0.94818962
-2.7510347 5.4126439 -0.94320077
-2.6491921 5.4164486 -0.9366768
-2.5566604 5.4807305 -0.93949109
-0.079262927 5.4020581 -0.95846581
0.053462844 5.4121537 -0.96021253
2.3442175 5.4811687 -0.92608517
2.4502912 5.4493885 -0.92818302
2.5360026 5.4164495 -0.92907846
16.179268 5.4733315 -0.94295889
-4.5578303 5.5344048 -0.91083068
-4.4567356 5.5840874 -0.90763807
-2.5025523 5.5411692 -0.94450551
-2.4468408 5.5535474 -0.94274026
-2.3732848 5.5708799 -0.94066799
2.0500112 5.5815945 -0.92370582
2.1552601 5.5504308 -0.92497224
2.256515 5.5082946 -0.9247036
16.156706 5.5764117 -0.94362038
-6.7642813 5.6780438 -0.92667139
-6.6505027 5.6524577 -0.91581845
-6.5613399 5.6814842 -0.91070509
-4.3666072 5.6468334 -0.90683985
-2.3182654 5.6324873 -0.94619405
-2.2733464 5.6710296 -0.94911063
1.6625314 5.6853294 -0.92017531
1.753551 5.6721787 -0.92229873
1.8493223 5.6720514 -0.92677593
1.9360374 5.6428185 -0.92675036
2.0020535 5.610023 -0.92531765
16.125011 5.6764369 -0.94378573
-6.9682031 5.7767081 -0.94973379
-6.4795828 5.7513561 -0.90908754
-4.3020606 5.7066307 -0.90789008
-4.2582006 5.7579083 -0.9097805
-4.1980386 5.7872596 -0.90826815
-2.2362962 5.7308149 -0.95563447
-2.1626964 5.7494926 -0.95425296
-1.992666 5.7766805 -0.94926411
1.3511403 5.7895956 -0.92355233
1.4410337 5.7734318 -0.92439657
1.5421027 5.727138 -0.92137772
1.6134925 5.7123055 -0.92209405
-16.332788 5.8254824 -0.95734638
-6.4171824 5.8024397 -0.90778315
-6.3653145 5.8629026 -0.90804404
-4.1315765 5.8453155 -0.90936041
-2.1247897 5.810483 -0.96108389
-2.0710392 5.8293023 -0.96100712
-1.9392039 5.8537822 -0.95796269
-1.8472476 5.8765926 -0.95693928
-1.7313905 5.8844738 -0.95287144
-1.6732147 5.8864145 -0.95064569
-1.352531 5.8326793 -0.93012738
-1.247979 5.8704209 -0.93232757
-1.1481398 5.8402963 -0.92462683
-1.0902367 5.828793 -0.92117304
0.84847128 5.8778191 -0.92255455
0.94009447 5.8731561 -0.92398721
1.0518637 5.8769264 -0.92746669
1.1570383 5.8420181 -0.92516416
1.2633464 5.8152356 -0.92444777
16.011944 5.8584499 -0.94130516
-16.309874 5.9303656 -0.95811808
-6.2955112 5.9066467 -0.9058004
-4.0638199 5.940629 -0.91438043
-3.976027 5.9681807 -0.91104072
-1.7956623 5.9018869 -0.95832086
-1.62558 5.9258499 -0.95455998
-1.5569155 5.961112 -0.95709276
-1.4717987 5.9318037 -0.94941759
-1.0549401 5.9426708 -0.93759787
-0.11524327 5.9900341 -0.93069023
-0.023287261 5.9772348 -0.92854118
0.050181031 5.9899158 -0.93053675
0.1605067 5.990941 -0.93099725
0.27022576 5.9761147 -0.92930877
0.36095956 5.9574151 -0.92715961
0.45024514 5.9231367 -0.92278481
0.54165083 5.9218812 -0.92378259
0.65303588 5.9331689 -0.92726201
0.76179701 5.9178619 -0.92690378
-16.285349 6.0348396 -0.95883471
-7.341342 6.0104237 -0.99554563
-3.9225743 6.0070419 -0.9114188
-3.8504646 6.0577207 -0.91188091
-1.0092931 6.0057397 -0.94604057
-0.95334238 6.0108438 -0.94542658
-0.88248014 6.0426273 -0.94865012
-0.60370249 6.0778351 -0.9488036
-0.54815137 6.0880289 -0.94957113
-0.32193148 6.0695391 -0.94419849
-0.24660596 6.0542755 -0.94128197
-0.17217325 6.0524015 -0.94059122
-0.078616396 6.0005088 -0.93222529
0.10551977 6.0020728 -0.93253231
0.21608709 6.0020761 -0.93299282
-16.403078 6.1931973 -0.96798539
-3.7588401 6.1189432 -0.912301
-3.6599579 6.1681519 -0.91116673
-0.81768739 6.1235209 -0.95970237
-0.74381733 6.1438808 -0.96139085
-0.66617668 6.1319113 -0.95816731
-0.45663822 6.1212907 -0.95356226
-0.38038352 6.1087584 -0.95079917
15.78965 6.1089506 -0.93469024
-3.5516274 6.2448564 -0.91267914
-3.4481444 6.2851171 -0.91072571
15.774164 6.2145028 -0.93601322
-3.3718917 6.3291636 -0.91104078
-3.2619865 6.3559766 -0.90759605
-3.1852803 6.3985567 -0.90801615
-16.716106 6.4288497 -0.98876733
-3.1372268 6.4001651 -0.90549558
-3.0901361 6.4032125 -0.90322715
-2.8862114 6.4813952 -0.90133673
15.582414 6.4727759 -0.93154812
-16.774895 6.5698938 -0.99461049
-2.8270364 6.5090098 -0.9015258
-2.74366 6.5354471 -0.90045452
-2.6016071 6.5901194 -0.90007651
-16.703661 6.6604948 -0.99279141
-2.5526993 6.6447949 -0.90429831
15.378888 6.6106706 -0.92416143
-16.617146 6.7444615 -0.99009031
-2.5083361 6.7130904 -0.91041058
-2.4501519 6.7461195 -0.91179693
-2.3655636 6.7709899 -0.91116679
-2.2776961 6.7858801 -0.90933943
15.413972 6.7381039 -0.92873675
-16.505312 6.8173261 -0.98590082
-16.394133 6.8894601 -0.98176652
-16.100908 6.8827782 -0.96671754
-15.869741 6.8994336 -0.9553619
-2.2214582 6.8259225 -0.91192293
-2.1912804 6.8762875 -0.91683793
15.260972 6.8955035 -0.92454731
-15.684646 6.9337001 -0.94676244
-2.1491635 6.965354 -0.92603779
-1.828837 6.9772949 -0.91633379
-1.746326 6.9217291 -0.90688187
-1.6964822 6.9024501 -0.90297508
-1.4864378 6.962883 -0.90448737
-15.618127 7.0191669 -0.94532925
-2.0499861 7.0240655 -0.92956656
-1.929482 7.0093164 -0.92358029
-1.4301836 7.0151224 -0.90952843
-1.3468308 7.0467515 -0.9114188
-1.2568433 7.0437074 -0.9089613
-1.1706032 7.0605631 -0.90921336
0.33663845 7.0989041 -0.90284908
15.097392 7.0459447 -0.9198066
-15.573855 7.1144509 -0.94527411
-10.752234 7.1715269 -0.9990204
-1.110428 7.1019411 -0.91318315
-1.0506089 7.1501088 -0.91809821
-0.96137536 7.1516423 -0.91671193
-0.84999675 7.1530228 -0.91511559
-0.74250865 7.1871419 -0.91790915
-0.65253663 7.1769428 -0.91551471
-0.56492186 7.1908379 -0.91633379
-0.45263019 7.1672459 -0.91234303
-0.36472511 7.1749954 -0.91267908
-0.2545467 7.178226 -0.91249001
-0.16594437 7.1579981 -0.90959144
-0.055834878 7.122776 -0.90490746
0.053666525 7.151288 -0.90852022
0.14153358 7.156538 -0.90933943
0.25063941 7.1371131 -0.90725994
14.790301 7.124948 -0.90635628
15.008765 7.1170578 -0.91705036
-10.644948 7.2423468 -0.99520552
-0.3219775 7.2058387 -0.91633379
14.777696 7.2309251 -0.90828562
-10.552878 7.322753 -0.99285501
-10.484095 7.3707371 -0.99062008
14.743779 7.3267956 -0.90894711
-10.417557 7.419889 -0.98861629
-10.352428 7.4696689 -0.9867667
-10.252699 7.5421133 -0.9838382
-10.149369 7.611104 -0.98060137
-10.04402 7.677475 -0.9772104
-9.9320498 7.7378073 -0.97320288
-9.8522921 7.7732835 -0.97004318
-9.7639065 7.8012271 -0.96603566
-9.6739998 7.827126 -0.96187407
-9.5887718 7.8560076 -0.95817482
-9.4935799 7.8758636 -0.95347375
-15.360301 7.9499111 -0.95486575
-9.4214096 7.9140868 -0.95108467
-9.3468504 7.9497838 -0.94846439
-9.2480326 7.9640455 -0.94337797
-15.325376 8.0514402 -0.95574778
-9.1552181 8.0319843 -0.94141275
-9.0515537 8.0897369 -0.93836862
-15.27216 8.143445 -0.95552725
-8.9490452 8.1474724 -0.93547857
-15.219271 8.2355738 -0.9553619
-8.8470173 8.2048054 -0.93266565
-8.3661366 8.2504005 -0.90823537
-15.168451 8.3288031 -0.9553619
-8.3188829 8.3051014 -0.90862072
-15.148462 8.4392109 -0.95734638
-8.2351561 8.4258127 -0.91070151
-15.054671 8.50842 -0.95470041
-14.991786 8.5946751 -0.95403892
-1.1725343 8.5576267 -0.90632218
-1.1246462 8.6001616 -0.91007894
-1.0208938 8.629117 -0.91174865
-0.94071186 8.6316814 -0.91107035
-0.83687353 8.665349 -0.91347051
-0.70516151 8.6925678 -0.915088
-0.65196031 8.6987143 -0.91529673
-0.57108372 8.6923962 -0.91404444
-0.46351668 8.6823635 -0.91232258
-0.35561052 8.6551018 -0.90893102
-0.27427176 8.6063595 -0.90350461
-14.820683 8.7399607 -0.94990456
-1.0902911 8.7549381 -0.9257322
-0.76038778 8.7098742 -0.91738379
-14.796769 8.84867 -0.9518339
-14.625228 8.8683681 -0.94428188
-14.542468 8.9406834 -0.94246274
-14.459373 9.0123167 -0.94064367
-14.313482 9.0438013 -0.93474531
-14.219044 9.1066856 -0.93220961
-14.142798 9.1807127 -0.93088663
-14.060343 9.2503061 -0.92917776
-14.007473 9.3391743 -0.92945337
-13.930876 9.4120903 -0.92818552
-13.839082 9.4742651 -0.92592543
-13.765921 9.5487585 -0.9249332
-13.721776 9.6433783 -0.92592543
-13.635506 9.7082815 -0.9241063
-13.553815 9.7759943 -0.92261797
-13.504057 9.8666325 -0.9233346
-13.46734 9.9671259 -0.92498833
-13.408325 10.051369 -0.92515367
-13.34958 10.135867 -0.92537421
-13.280804 10.212718 -0.9249332
-13.243886 10.314261 -0.92675227
-13.144286 10.366887 -0.92421657
-13.064045 10.434258 -0.92305893
-12.974156 10.4935 -0.92123985
-12.921113 10.5824 -0.92206669
-12.749932 10.639687 -0.91680229
-12.515254 10.773846 -0.91170335
-12.460202 10.860276 -0.91253018
-12.325951 10.877067 -0.90756899
-12.306632 10.995068 -0.91109693
4.653049 5.1514602 -0.88188678
4.4477663 5.271287 -0.8761946
4.553597 5.231688 -0.88113064
4.3561106 5.359901 -0.87745488
4.1131878 5.4948993 -0.87197274
4.2494678 5.464426 -0.8794083
4.0852056 5.5994563 -0.88054246
4.141964 5.5332961 -0.87808502
3.984865 5.6785755 -0.88129866
4.0372262 5.6420383 -0.8813616
3.6951406 5.7784166 -0.8713426
3.7620182 5.7652917 -0.8745563
3.8509607 5.746315 -0.8787781
3.9312913 5.7133474 -0.88104659
3.5735588 5.8619018 -0.87216175
3.6552114 5.8335924 -0.8745563
5.4582353 5.8895879 -0.84256136
-6.1569786 5.9568353 -0.89891303
3.378854 5.9882498 -0.87348503
3.4520149 5.9462757 -0.87348503
3.5258126 5.9052286 -0.8737371
5.4515419 5.9552455 -0.84715295
-6.0465884 6.0323582 -0.89619976
-5.9722838 6.0689545 -0.89343435
3.2621098 6.0830116 -0.87688774
3.3307631 6.0320983 -0.87537539
5.3692927 6.0866523 -0.85164022
5.4220557 6.0336308 -0.85117066
-5.928309 6.1361966 -0.89526057
-5.8623576 6.1806879 -0.89385176
-5.7289772 6.1904955 -0.88503379
3.0498836 6.1791759 -0.87541741
3.1392102 6.121706 -0.87398911
3.2073987 6.1154332 -0.87726581
5.2595677 6.188241 -0.852162
5.3195233 6.1433077 -0.85268378
-5.6456723 6.2143106 -0.88096392
-5.5544372 6.266643 -0.87866813
2.8348589 6.2679086 -0.87392616
2.9423943 6.2486253 -0.87743384
5.1889453 6.2592092 -0.85310119
5.2125468 6.2097321 -0.85070103
-5.4582901 6.312623 -0.87564182
-3.0265253 6.3709774 -0.89604366
-2.9789734 6.3714547 -0.89352316
2.6564569 6.3885727 -0.87896717
2.7498178 6.3371739 -0.87760186
5.1391416 6.3564038 -0.85769278
-5.1572556 6.4688454 -0.86807609
-2.9350059 6.4310684 -0.89806008
2.5489209 6.4631681 -0.88262188
2.6007307 6.4205937 -0.88003838
4.9575834 6.490324 -0.85696232
5.0497179 6.4454536 -0.85915375
-5.1015248 6.5211458 -0.86875445
-5.0339971 6.5583267 -0.86750215
-2.6580462 6.5557485 -0.89869022
2.1611598 6.579493 -0.87978631
2.2525108 6.5839977 -0.88402921
2.3461733 6.5289564 -0.88136166
2.4545369 6.5145612 -0.88440728
4.687902 6.5866995 -0.84830087
4.7626352 6.5629487 -0.85085756
4.8612213 6.5287418 -0.8540926
-4.957325 6.6251688 -0.86823261
-4.8507738 6.6513329 -0.86379755
-4.7705255 6.6694694 -0.86040604
2.0645216 6.6987405 -0.89049852
2.1163769 6.6491976 -0.88646567
4.3805356 6.6608877 -0.83650875
4.4513373 6.6347055 -0.83833498
4.5628862 6.6238079 -0.84397012
4.6382513 6.6023192 -0.84663117
-4.7329545 6.7034898 -0.86103219
-4.6766858 6.7549186 -0.86207569
1.165471 6.7853022 -0.87461925
1.2463627 6.7583814 -0.87306499
1.3528893 6.7529287 -0.87493432
1.4474013 6.7911301 -0.88211781
1.556705 6.7911134 -0.88512141
1.6463623 6.7982697 -0.88860816
1.9454254 6.7517529 -0.89264089
2.02338 6.7112818 -0.89049852
4.2901158 6.7925243 -0.84297878
4.3505793 6.7497711 -0.84261358
-4.6165833 6.8009925 -0.86249316
-4.5372505 6.8183174 -0.85936248
-4.4451103 6.8609734 -0.85779715
-1.6434782 6.8683491 -0.89717788
-1.5741756 6.8570504 -0.89377522
1.129159 6.8246231 -0.8787781
1.6971421 6.8246226 -0.89339709
1.7593836 6.8067589 -0.89314508
1.85059 6.813374 -0.89692581
4.0655961 6.8969369 -0.84005684
4.1450377 6.886035 -0.84334397
4.2302718 6.8363433 -0.84355271
-4.3467097 6.9400916 -0.85925817
-1.5206109 6.914876 -0.89944637
0.4611834 6.9994459 -0.89112866
0.54359388 6.9493275 -0.8855415
0.6499393 6.9380856 -0.88526845
3.9944999 6.9704695 -0.84297878
4.0286984 6.9312115 -0.84120476
-4.2518649 7.0260077 -0.86171043
-4.1862898 7.0635858 -0.86155397
0.37796125 7.0550995 -0.89755595
0.41929156 7.019969 -0.89339709
3.6704948 7.0949244 -0.83817846
3.7326243 7.0550809 -0.8375001
3.832222 7.0332088 -0.84042203
3.9335926 7.0129614 -0.84370923
-4.1549129 7.1097474 -0.86405843
-4.0987973 7.1135645 -0.8614496
3.4695494 7.1858978 -0.83729142
3.5603018 7.148592 -0.83796972
3.6264405 7.1164265 -0.83807409
-4.1105804 7.2362981 -0.87324166
-4.0368233 7.2611618 -0.87172854
3.2765119 7.234477 -0.83332598
3.3722458 7.2090206 -0.83509994
-3.9579854 7.329875 -0.87407649
3.091557 7.3602543 -0.83765668
3.1534507 7.3182087 -0.83614349
3.2281194 7.3057404 -0.83807409
2.8703942 7.4674048 -0.83943069
2.9369845 7.435545 -0.83885676
3.0332685 7.4118357 -0.84031773
-3.6434016 7.5597692 -0.88054651
-3.5990787 7.5864754 -0.88106829
2.74564 7.5553451 -0.84350055
2.8350549 7.5127916 -0.84256136
-3.5274248 7.6156282 -0.88065088
-3.4290228 7.6479063 -0.8794508
-3.3327184 7.6843996 -0.87887681
2.5517139 7.6755137 -0.84871829
2.6398854 7.6266956 -0.8468399
-3.2493072 7.7513218 -0.88190317
-3.1789911 7.78369 -0.88221622
1.357906 7.7385964 -0.82440364
1.4562926 7.7404208 -0.82643855
1.5496297 7.7141609 -0.82560372
1.6488342 7.7164512 -0.82795167
1.755536 7.7489729 -0.83369118
1.8608191 7.7698827 -0.83833498
1.9385656 7.7780538 -0.84110039
2.0958672 7.7948375 -0.84694427
2.168854 7.7799683 -0.84746599
2.2475417 7.7845597 -0.85017926
2.3255033 7.7849436 -0.85252726
2.449086 7.7627048 -0.85410994
-3.1311715 7.8030496 -0.88221622
-3.0574119 7.8268633 -0.88169444
-2.9579768 7.8554177 -0.88075525
-2.8484476 7.8556056 -0.87678975
-2.7510183 7.88762 -0.87652886
-2.3003647 7.897645 -0.86311924
1.9988225 7.8151522 -0.84642249
2.0490088 7.8113985 -0.84736168
-2.6518061 7.9141836 -0.87579834
-2.5495014 7.9304957 -0.87407655
-2.4433527 7.9331465 -0.87099802
-2.3646832 7.9367571 -0.86896312
-2.2297792 7.9260883 -0.86395407
-2.1473112 7.9117742 -0.86019731
-2.0713844 7.9196157 -0.85894507
-1.948638 7.9465461 -0.85852766
0.65132713 7.9595156 -0.83796972
0.75098878 7.9712095 -0.84010899
-1.835662 8.0153046 -0.8628062
-1.7692977 8.0658941 -0.86645859
0.56232131 8.0914173 -0.85106623
-6.6546278 8.1459398 -0.81305754
-1.7276438 8.1135626 -0.87042409
-1.6628516 8.1783066 -0.87569404
0.46736717 8.1751595 -0.85920596
-6.6019192 8.2348337 -0.81583196
-6.5617876 8.2884769 -0.81714207
-1.570848 8.2425461 -0.88044214
-1.4992118 8.2801752 -0.88294667
0.39427686 8.2233572 -0.86384976
-6.5132632 8.3317251 -0.81745034
-6.4302177 8.383358 -0.81667972
-1.425364 8.3077984 -0.88445985
-1.3299909 8.3669033 -0.88894713
-0.035589091 8.3783894 -0.87913775
0.067176357 8.3687458 -0.87814641
0.16967365 8.3593378 -0.87731153
0.27191418 8.3481789 -0.87642449
0.34750834 8.3140583 -0.87313735
-6.3450117 8.4318781 -0.81567782
-6.2606001 8.4810514 -0.81483006
-1.2386346 8.4608307 -0.89724332
-0.13940921 8.4344978 -0.88513815
-6.1510801 8.5503778 -0.81417501
-0.22035907 8.5651293 -0.89901733
-6.0445566 8.6235771 -0.81402087
-5.9635558 8.6768255 -0.81382823
-5.9158006 8.7215042 -0.81459886
-5.8449821 8.7319546 -0.81220978
-5.7386851 8.7461262 -0.80858767
-5.6471348 8.7818756 -0.80704629
-5.5621657 8.7675304 -0.80257642
-5.4976859 8.7845907 -0.80103511
-11.213841 11.191356 -0.87465966
-11.133722 11.248598 -0.87377769
-10.959472 11.34775 -0.87096637
-10.021948 11.594675 -0.84610522
-9.9447803 11.649117 -0.84560913
-9.8724718 11.709153 -0.84555399
-9.7819118 11.747258 -0.84395534
-9.689353 11.782379 -0.8421914
-9.6175051 11.842385 -0.84224653
-9.5177984 11.867681 -0.83987617
-9.4069872 11.87811 -0.83651358
-9.3068628 11.900999 -0.83408809
-9.2013216 11.915996 -0.83116651
-9.051466 11.94756 -0.8275283
-8.8803682 11.948709 -0.82190561
-8.7584496 11.936961 -0.81738538
-8.6481409 11.939533 -0.81391251
-8.5526505 11.961508 -0.81181782
-8.4739132 12.006419 -0.81132168
-8.3846731 12.036068 -0.80983335
6.4338217 7.4249334 -0.75941885
5.2172413 8.0340395 -0.74046034
5.0700598 8.1312485 -0.74069154
5.0024724 8.2465572 -0.74554682
4.95608 8.3423843 -0.75005519
4.1592379 8.4735527 -0.72963244
4.5482521 8.4636116 -0.74269533
4.6447263 8.4554968 -0.74570096
4.7382088 8.4405966 -0.7482056
4.8496761 8.4559231 -0.75348473
4.9014697 8.4260073 -0.75348473
4.2882872 8.5369787 -0.73845661
4.3659558 8.5602436 -0.7427724
4.4420123 8.5147896 -0.74234855
-5.4211607 8.7816782 -0.79772121
-5.3417683 8.7730484 -0.7939449
-5.276545 8.7868557 -0.79224944
-5.2245626 8.8224974 -0.79255772
-5.1411705 8.8044519 -0.78808779
-5.0379038 8.8128214 -0.78465831
-4.9417267 8.8323355 -0.7823078
-4.8898468 8.8668556 -0.78269309
-4.7746153 8.8495922 -0.77725989
-4.4500666 8.890233 -0.76847422
2.9419072 8.8389397 -0.72007614
-4.2549329 8.9770365 -0.76789623
-4.1474285 8.9623795 -0.76334929
-4.0434222 8.9529743 -0.75934178
-3.9952934 8.9931059 -0.76065195
2.8976867 8.9809551 -0.7294398
-4.3596783 9.0540657 -0.77675897
-3.8209357 9.0458345 -0.7590335
-3.7032387 9.0763493 -0.75772339
2.8325422 9.063839 -0.73402524
-3.6349587 9.1489334 -0.76096022
-3.5560424 9.195981 -0.76211619
2.7581511 9.1196156 -0.73645288
-3.83494 9.2366982 -0.77305973
-3.4633641 9.2072716 -0.76038218
-3.3579688 9.2706242 -0.76215476
1.8811438 9.2016668 -0.72597176
2.7258947 9.2166786 -0.74292654
-3.24405 9.3116264 -0.76219326
-3.1326933 9.3601933 -0.76296395
-3.0482783 9.3943615 -0.76342636
2.6475477 9.373209 -0.75286818
2.7086105 9.3692389 -0.75387001
-2.9643714 9.4305325 -0.76411998
-2.8495612 9.4700212 -0.7644282
-2.750319 9.4547253 -0.76111436
-2.6601038 9.4685459 -0.76022804
-2.5357163 9.4706211 -0.75783896
-1.4115363 9.4617548 -0.7394585
-1.3499271 9.4455624 -0.73753184
2.5499516 9.470459 -0.75810874
2.6040363 9.440218 -0.7569527
-2.4530272 9.5114717 -0.75926471
-2.366195 9.5369911 -0.75953448
-2.245012 9.5483208 -0.7581858
-2.164057 9.5997486 -0.76065195
2.3870308 9.5631905 -0.76188499
2.4694128 9.5195436 -0.76018953
-2.1078861 9.6255074 -0.76165378
-2.0491998 9.6402111 -0.76180792
-1.9618727 9.6659441 -0.76238596
-1.5009637 9.6548796 -0.75525725
2.0284822 9.6211567 -0.7600354
2.2508464 9.6452579 -0.76558423
2.3344307 9.6028461 -0.76388878
-1.8494961 9.7230911 -0.76504475
-1.7328926 9.7612562 -0.76631635
-1.6424643 9.773387 -0.76604664
-1.5705248 9.7094631 -0.7602666
-1.2687265 9.7283535 -0.75833994
1.5559995 9.721899 -0.76103729
2.1407967 9.7101021 -0.76858985
-1.3405446 9.8092918 -0.76527596
0.72180581 9.8971128 -0.76704848
1.75471 9.8034945 -0.7698229
1.8567458 9.8500824 -0.77479374
1.9412551 9.8018093 -0.77236611
-1.23813 9.9704494 -0.77660483
0.66372138 9.9411488 -0.77013117
-1.1504207 10.017533 -0.77941775
-1.0306976 10.063131 -0.78192246
0.61049157 10.073415 -0.78007281
-0.94511229 10.147682 -0.78777957
-0.88170677 10.140378 -0.78677768
-0.75638646 10.139498 -0.78592992
-0.69633561 10.175778 -0.78839606
0.46006641 10.174675 -0.78727859
0.55045956 10.109824 -0.78261608
-0.82412559 10.203237 -0.79124755
-0.6360538 10.214687 -0.79109341
-0.54562628 10.288261 -0.79637253
-0.45032707 10.279449 -0.79533213
-0.35578227 10.286598 -0.79560184
-0.16639341 10.289908 -0.79548627
0.054566968 10.282184 -0.79479265
0.14918113 10.280201 -0.79471558
0.24372454 10.275451 -0.79448438
0.33693221 10.233864 -0.79147875
-0.26172268 10.312907 -0.79741293
-0.040191539 10.314606 -0.79729736
-6.3628001 10.969313 -0.70010811
-2.2695 12.546982 -0.70393926
-2.0317824 12.547205 -0.7017343
-1.9579805 12.580153 -0.70289189
-1.491739 12.627831 -0.70200992
2.025825 12.671544 -0.70845944
-1.6671478 12.765997 -0.71077466
6.598516 9.8968639 -0.65669763
7.3220954 9.8934383 -0.67951912
7.2435808 9.9139929 -0.67786539
6.597261 10.163016 -0.66893524
6.6984596 10.18157 -0.67284906
6.4798474 10.396276 -0.67632192
6.5371156 10.34619 -0.67566043
6.6139383 10.326905 -0.67703855
5.6647787 10.468463 -0.65713859
6.2699647 10.484651 -0.67444766
6.3378029 10.451959 -0.67483354
6.4054761 10.418828 -0.67521942
4.8180614 10.546955 -0.64016026
6.2339168 10.571089 -0.67753464
6.176465 10.622088 -0.67836154
-6.6199694 10.719428 -0.69556034
-6.5545907 10.760698 -0.69561547
5.7413774 10.76734 -0.67367595
6.1613293 10.747275 -0.68392909
-6.5167208 10.847789 -0.69864732
-6.4561443 10.89788 -0.69930881
5.1055975 10.822968 -0.66066658
5.5562716 10.898771 -0.67538482
5.7169967 10.881918 -0.67863715
5.9831281 10.896499 -0.68629944
6.0586219 10.875282 -0.68729168
6.1085339 10.808348 -0.68541741
-6.1555409 10.997277 -0.69578081
4.8445067 10.958704 -0.66149342
4.9116569 10.928773 -0.66149342
5.0626383 10.904807 -0.66375351
5.2318931 10.916594 -0.66832888
5.3201928 10.928276 -0.67102998
5.448369 10.934643 -0.67447519
5.6519547 10.920339 -0.67885762
-6.2564287 11.018343 -0.69952929
-6.0758886 11.012983 -0.69440275
4.6574454 11.082839 -0.66369843
4.7530923 11.025244 -0.662844
4.2153244 11.164555 -0.65884745
4.1366062 11.268915 -0.66273373
-3.2258739 11.341185 -0.65096468
4.0580807 11.377559 -0.66689563
-3.1928413 11.492565 -0.65851671
3.9640608 11.446001 -0.6687423
-3.1246164 11.520613 -0.65901285
3.8409543 11.546839 -0.67182922
3.6822443 11.663944 -0.67527455
3.7466958 11.619274 -0.6740067
-3.0680962 11.739157 -0.66987234
-2.9624519 11.776615 -0.67042357
3.2461863 11.776173 -0.67439252
3.438725 11.767114 -0.67681801
3.5454767 11.730236 -0.6765424
3.6159117 11.70349 -0.67626679
-2.5300965 11.892324 -0.67125046
3.3560851 11.889602 -0.68205488
-2.9390893 11.994348 -0.68177921
-2.8469036 11.934457 -0.6773693
-2.7817473 11.986715 -0.67935377
-2.6530566 11.929889 -0.67472327
-2.4631324 11.936961 -0.67290419
