# .PCD v0.7 - Point Cloud Data file format
VERSION 0.7
FIELDS x y z
SIZE 4 4 4
TYPE F F F
COUNT 1 1 1
WIDTH 1546
HEIGHT 1
VIEWPOINT 0 0 0 1 0 0 0
POINTS 1546
DATA ascii
-1.8344694 8.727354 1.5099798
-1.7753719 8.7113953 1.5053055
-1.5131668 8.795764 1.5111485
-2.1426458 8.9571667 1.5593944
-2.4572279 9.0375633 1.5857711
-2.3442698 9.0598812 1.5845189
-2.2497332 9.036624 1.5767562
-0.81988704 9.0248566 1.5343533
1.466522 9.0314817 1.5492109
1.5526055 9.0350466 1.5522158
1.6705123 9.0540981 1.5588934
1.8420732 9.0474234 1.5633174
-0.77722245 9.1800327 1.5598952
-0.72597206 9.2495031 1.5709133
-0.67404038 9.3206549 1.5822653
4.4794512 11.789333 1.5038489
4.3381944 11.853672 1.5051514
4.4056411 11.812875 1.5033753
1.403536 12.531315 1.5036122
0.17569861 13.147676 1.5679054
0.25619367 13.137415 1.5668398
0.33707848 13.146515 1.5681423
0.45889443 13.165617 1.5708656
0.58232832 13.213475 1.5771409
0.74907291 13.28762 1.5869685
0.83127177 13.293675 1.5882709
0.66857338 13.312792 1.589455
0.95597893 13.318577 1.5922375
1.0805559 13.334516 1.5952568
-7.4197593 14.99647 1.558036
-8.042675 15.073671 1.590951
-7.9365973 15.097178 1.5882621
-7.6968908 15.087888 1.5772287
-7.5742183 15.075221 1.5710166
-7.312777 15.011281 1.5548836
-7.2226844 15.060358 1.5553472
-7.0867853 15.012549 1.54589
-6.9827905 15.030467 1.5432938
-7.9005928 15.255227 1.5997592
5.9667816 15.434196 1.5408832
5.6013365 15.618155 1.5450555
-6.6027713 15.700419 1.5860369
5.4147744 15.701717 1.5466317
-5.5769205 15.931035 1.5717583
-6.6149106 20.934422 1.5313687
-3.2574718 -13.288641 1.6314884
-3.1537461 -13.215657 1.6201216
-3.0815792 -13.273449 1.6248578
-2.998328 -13.284359 1.6239105
-13.736226 -10.435104 1.6063422
-13.776896 -10.333299 1.6036533
-4.2537098 -9.0318031 1.6903594
-4.1702456 -9.0701523 1.6902759
-4.2966595 -8.9092627 1.6747504
-4.3230519 -8.8251772 1.6638993
-4.7639923 -8.7526541 1.687271
-4.6343679 -8.7042503 1.6696588
-4.5324111 -8.7050581 1.6617291
-4.4462776 -8.7349339 1.6595589
-4.3652635 -8.7746515 1.6593919
-5.0300446 -8.4232292 1.6611447
-4.9685216 -8.4968605 1.6665703
-5.2016916 -8.3003511 1.6585572
-5.1302218 -8.3562317 1.6602266
-5.3133001 -8.2516441 1.6617291
-5.272614 -8.2999029 1.6649009
8.5864429 -7.9071422 1.6737318
8.7402439 -7.950222 1.6941708
8.8183146 -7.9229059 1.6998484
3.4706564 -7.5186186 1.6096648
3.5200596 -7.5042911 1.6111913
3.6311321 -7.5002885 1.6197777
3.7465808 -7.5025878 1.6300813
3.8456526 -7.5267315 1.642961
3.961941 -7.5250201 1.6530738
4.0503349 -7.5241561 1.6609924
4.1459451 -7.5346575 1.6716777
4.2391424 -7.5390253 1.6812181
4.3369703 -7.549428 1.6923804
4.4243879 -7.5401502 1.699345
3.5664611 -7.4834375 1.611382
3.6874804 -7.4990082 1.6243571
0.43946305 -7.3469157 1.6235988
1.4544204 -7.3741355 1.6580654
-0.32315645 -7.2464046 1.6001184
-0.1452821 -7.2550817 1.6007646
0.055139072 -7.2650814 1.6027035
0.14409992 -7.2545829 1.600657
0.23337016 -7.2605648 1.602488
0.3452121 -7.2655005 1.6045704
-1.5166121 -7.107265 1.6031343
-1.4508219 -7.1194563 1.6028111
-1.3459805 -7.1649685 1.6082325
-1.2337673 -7.1721535 1.605396
-1.1444163 -7.1790414 1.6036727
-1.0766317 -7.1781983 1.6011955
-1.5599833 -7.0968719 1.6029189
-16.995813 -4.0229263 1.6263692
-16.979425 -3.9091835 1.6224751
-16.963255 -3.7960112 1.6186737
-16.906443 -3.6745145 1.6110708
-16.928671 -3.5707095 1.6110708
-16.921972 -3.460984 1.608382
-16.899595 -3.1334896 1.6005009
-17.048857 -3.0530803 1.6128324
-17.032928 -2.9424806 1.6095873
-17.03986 -2.8361149 1.6085674
-17.04121 -2.7289877 1.6070839
-17.092077 -2.6296728 1.610329
-17.160097 -2.5324528 1.6152431
-17.104328 -2.4170816 1.6085674
-17.086275 -2.307688 1.6055077
-17.148649 -1.8888739 1.6065276
-17.258953 -1.79391 1.6157994
-17.38657 -1.6994069 1.6267402
-17.302473 -1.584069 1.617932
-17.381311 -1.4838016 1.6244222
-17.491333 -1.3851415 1.6338794
-17.474676 -1.2759778 1.6315615
-17.569523 -1.0663265 1.6390717
-18.015177 -0.98246706 1.6800531
-18.033794 -0.87253505 1.6812584
-18.020903 -0.76110905 1.6795895
9.1820097 3.6566341 1.6734149
9.1492882 3.7415402 1.6736653
22.841158 5.5547457 1.6396389
22.773739 5.6865749 1.6372731
21.603403 9.0852556 1.6346986
3.7357147 10.796099 1.6381054
7.6615372 11.141096 1.612307
2.3042014 13.689087 1.6552876
2.448967 14.022916 1.6974394
-8.3701591 15.015265 1.6007791
-8.2749929 15.061105 1.6002228
-8.2004395 15.144868 1.6037461
-7.1462636 15.632665 1.6005937
-6.9681325 16.016291 1.626462
-6.6591005 16.251556 1.6354556
-5.5818458 16.264439 1.6012427
-6.5226383 16.345495 1.6387935
-6.187583 16.375233 1.6300781
-5.5086079 16.377655 1.609031
-6.3365841 16.463335 1.6426877
-5.3644023 16.621216 1.6263692
-5.2893157 16.739267 1.6347139
-5.1759157 16.737162 1.631376
-5.0912857 16.828646 1.6372173
-5.0167437 16.956957 1.6466745
-7.8914094 22.106695 1.6372731
-6.8246226 22.557989 1.6438835
-6.5542159 22.663996 1.645623
-15.596463 -19.214773 1.7261994
-15.458304 -19.2852 1.7239728
-15.766644 -19.182678 1.7319747
-15.982216 -18.96563 1.7299569
-4.374507 -11.704432 1.7916822
-15.506896 -11.19087 1.780745
-15.51111 -10.906954 1.7657247
-15.315763 -10.910645 1.7510753
16.222971 -10.430087 1.7959508
16.23201 -10.295683 1.7899241
-15.466622 -10.181301 1.7242796
16.257738 -10.172653 1.7858446
-15.523792 -10.082954 1.7237234
16.256302 -10.033484 1.7788906
-16.368883 -9.9315386 1.7828776
-15.594589 -9.9934216 1.7247432
16.26313 -9.9004126 1.7729567
16.291986 -9.7814741 1.7695261
16.294292 -9.647337 1.763314
16.312767 -9.5235806 1.7589563
16.312216 -9.3895311 1.7526515
16.340078 -9.2725563 1.749499
16.387106 -9.1667738 1.7484791
-5.9007039 -8.8035603 1.7944471
-5.8487511 -8.8428898 1.7951148
-5.7612314 -8.3714876 1.7206591
8.9134064 -7.9100418 1.7087905
9.0354691 -7.9197965 1.7228423
9.1430159 -7.915391 1.7340554
9.2500944 -7.9093184 1.7451266
9.3695412 -7.912447 1.7584687
9.5053358 -7.9277191 1.7747916
9.6256227 -7.9284043 1.7881337
4.844543 -7.6006579 1.7520083
4.9467087 -7.6054583 1.7635522
5.0509276 -7.6116209 1.7756686
5.1609769 -7.624074 1.7895977
4.4946647 -7.5533519 1.7085038
4.5749049 -7.581943 1.7212881
4.6367092 -7.5788498 1.7270123
4.7372427 -7.58532 1.7383654
2.4580669 -7.4812036 1.7371237
2.5318565 -7.4730139 1.7405703
-0.74518061 -7.2017436 1.785063
-0.54551059 -7.2122769 1.7832677
-0.45732048 -7.2237563 1.7845843
-0.34615859 -7.2240467 1.7831482
-0.2352879 -7.2275925 1.7829087
-0.14668566 -7.2357602 1.7843449
-0.057902776 -7.238472 1.784704
0.053351298 -7.2609429 1.7902497
0.16441788 -7.248004 1.7874569
0.25400564 -7.2633905 1.7918854
0.32105729 -7.2661157 1.793202
-1.5408112 -7.1051426 1.7924839
-1.4549545 -7.130724 1.7943192
-1.3456082 -7.1530457 1.7945187
-1.2561829 -7.160419 1.7923641
-1.1456262 -7.1751099 1.7914466
-1.0341105 -7.1826048 1.7891326
-0.9429096 -7.1721325 1.7835071
-0.85423112 -7.1783457 1.7823102
-0.78935564 -7.1970358 1.785063
-0.65449744 -7.1851115 1.7788391
-5.15976 4.8407822 1.7443682
-5.114728 4.9179306 1.7493954
-5.0802813 4.945158 1.747959
3.0928545 5.6776323 1.7650923
3.1753039 5.621932 1.762722
3.0835104 5.744101 1.7798409
3.1528339 5.7041407 1.7793142
3.3692374 8.2745905 1.7366481
3.4488711 8.2518711 1.7384609
3.5025115 8.2377806 1.7399873
3.3097837 8.3477182 1.7455208
-1.8480725 8.8689365 1.7609763
-1.7389094 8.8899841 1.7607855
-2.0482686 8.9970875 1.7936046
-1.9480236 8.9359083 1.7777674
-1.7980889 8.9022398 1.7653649
-1.6574512 8.9079838 1.7612625
-1.554478 8.9653854 1.7687042
1.4473889 8.9887648 1.7697535
1.5596189 8.9819288 1.7720432
1.6445061 8.9797926 1.7745237
1.7004879 8.9743557 1.7754778
-1.4827017 9.0447292 1.7815837
-1.3760042 9.091361 1.787308
1.366219 9.0124245 1.7718524
-1.3292149 9.1618061 1.7995198
-1.2169435 9.1793737 1.7999014
3.5513897 11.381863 1.7096422
3.6121416 11.331564 1.705384
3.3479428 11.468109 1.7130486
3.4089003 11.41605 1.7083647
3.2919056 11.538886 1.7205713
1.2288108 12.251594 1.7655656
0.9367218 12.396507 1.7825983
1.4735197 12.390069 1.7891273
1.5452135 12.346416 1.7841595
1.65921 12.335051 1.7846563
1.7782713 12.358013 1.7902628
1.3292257 12.481041 1.7997727
-2.8192003 -12.450239 1.8304312
-3.8247097 -12.257827 1.8412186
-3.0453615 -12.223957 1.8063729
-2.9240704 -12.215431 1.8010502
-2.8506346 -12.239892 1.8020437
-3.8851192 -12.187915 1.8342636
-3.6425612 -12.198556 1.8254634
-3.5393488 -12.123755 1.8109858
-3.3038969 -12.143867 1.8045986
-3.2270353 -12.1553 1.8033211
-3.1568573 -12.192121 1.805876
-3.4472406 -12.08337 1.8017598
-4.0566578 -11.9606 1.8109858
15.552559 -11.701218 1.812362
15.73197 -11.685722 1.8248789
15.849143 -11.622535 1.8301638
-5.4891834 -11.552387 1.8339797
15.95726 -11.551926 1.8344289
16.049713 -11.469427 1.8369322
16.089682 -11.349496 1.8335017
16.124699 -11.226664 1.8296075
16.161276 -11.10552 1.8259915
16.195328 -10.983234 1.82219
16.175529 -10.825507 1.8124547
16.190136 -10.692032 1.8067061
16.210388 -10.563136 1.8016993
-4.3653173 -10.317039 1.8967818
-6.1479726 -8.7028046 1.8041296
-6.2324057 -8.6522007 1.8054652
-6.5113859 -8.5325384 1.817318
-6.4666219 -8.5825682 1.8194882
-6.3495879 -8.5904942 1.8087205
-6.5809631 -8.4077358 1.8078023
-6.6601896 -8.2971268 1.8014586
-5.2347913 -8.2086754 1.8924437
-5.1595173 -8.2572994 1.8926345
-5.3592529 -8.1261454 1.8921576
-5.2866592 -8.178874 1.8930161
-5.5001631 -8.0677576 1.8979771
-5.4313779 -8.0728483 1.8912989
9.776988 -7.9528947 1.8071535
9.885025 -7.9404879 1.8180827
10.032826 -7.9584265 1.8362508
10.194465 -7.9852242 1.8568317
10.285551 -7.9552245 1.8644964
10.382946 -7.9292126 1.8732965
5.2637968 -7.6239896 1.8008554
5.3374858 -7.6301575 1.8100142
5.4046364 -7.6260958 1.8168833
3.5503075 -7.5379996 1.8380827
3.6508586 -7.5109301 1.8422472
3.7672625 -7.5144486 1.8543106
3.8536587 -7.5132923 1.8627119
3.9690633 -7.509901 1.8738059
4.0535569 -7.501884 1.8810223
4.1262717 -7.5256772 1.8933011
5.4513273 -7.5927896 1.8168833
1.3876623 -7.4035182 1.8571167
3.7011988 -7.4971437 1.8444014
0.4124994 -7.3023424 1.803256
1.4562337 -7.3927741 1.8577151
-14.053861 -7.272192 1.8868858
0.36719722 -7.2950392 1.8008622
-14.015943 -7.143887 1.8758742
-14.162193 -7.0008335 1.8838073
-14.059513 -7.0577521 1.8758742
-13.882572 -6.7569289 1.8410635
-13.857506 -6.6398687 1.8323015
-13.836018 -6.5254898 1.8241317
-13.86589 -6.4358721 1.8228292
-14.038926 -6.3079629 1.8352617
-13.962925 -6.3770723 1.8304071
-14.03468 -6.202837 1.8296967
-14.141686 -6.1466875 1.8386954
-14.232094 -6.0824332 1.8455628
-14.523821 -5.8933601 1.8690068
-14.451733 -5.6585717 1.8506541
-14.455983 -5.456605 1.8424842
-14.284134 -5.492106 1.8248421
-14.461379 -5.1565766 1.8307623
-14.399953 -5.0352983 1.8190403
-14.424942 -4.9449153 1.8183299
-14.594891 -4.8038492 1.8321831
-14.480427 -4.8648505 1.8215268
-14.627872 -4.7154245 1.8326567
20.097319 1.4674796 1.8764302
19.668072 1.5575178 1.8372104
19.661121 1.6784235 1.8374885
19.630621 1.7972147 1.8356342
19.629135 1.9186008 1.8365613
19.603128 2.0375657 1.8352634
19.605103 2.159445 1.8366541
19.617197 2.2826912 1.8390647
19.574162 2.3995037 1.836376
19.630173 2.5287225 1.8430517
19.489214 2.7540994 1.8328526
19.476873 2.8743579 1.8333162
19.583675 3.1361394 1.8468531
19.60553 3.3869035 1.8526943
19.963678 3.5750613 1.8885763
3.3064721 5.7303696 1.8061777
3.4229417 5.8490176 1.8501601
7.088985 8.2965612 1.8477012
7.1371779 8.2499247 1.8470334
6.9929523 8.3905029 1.8493706
7.039217 8.3414087 1.8480351
6.9235005 8.4644012 1.8515408
-2.3868084 9.1741743 1.8426425
-2.2390161 9.1820145 1.8371091
-2.1327488 9.1095581 1.8186007
-1.44399 9.1603193 1.8025726
-1.2736491 9.1746511 1.8004738
-2.3362634 9.211483 1.847222
-1.1668718 9.2363358 1.8096325
-1.1196585 9.3222666 1.8250881
-1.0666579 9.3660231 1.8323389
-1.0182066 9.4563265 1.8487484
-0.96561491 9.5161104 1.8592429
23.456755 11.24945 1.814569
23.410606 11.404525 1.8163781
5.0312719 11.679326 1.8234763
4.3837309 11.952235 1.8254634
4.5656486 11.990973 1.8397992
4.491641 12.017835 1.8396572
4.7032027 12.127934 1.865206
1.4074459 12.487405 1.8019017
1.8824354 12.535797 1.8176569
1.1513678 13.096023 1.8850774
0.67183137 13.193786 1.8943033
0.75175899 13.171627 1.8917484
0.83256447 13.166766 1.8917484
7.262753 14.172644 1.898963
2.2497382 15.376125 1.8530223
2.3895249 15.344043 1.8517199
2.4845819 15.334973 1.8524302
1.9199321 15.427856 1.8538511
2.0181623 15.443355 1.8571664
2.1126134 15.428713 1.8569295
-0.08009319 15.875331 1.8930428
0.017248195 15.811975 1.8854649
10.333738 16.515181 1.8141236
-4.3166761 -10.94294 1.9917711
-4.4189301 -10.811566 1.9775811
-4.3602242 -10.857691 1.9810869
-4.4738264 -10.756937 1.9725729
-4.7746735 -10.641891 1.97491
-4.6329775 -10.674788 1.9703193
-4.1370363 -9.0294352 1.9306054
-4.2282 -8.9371796 1.9218283
-4.2910824 -8.8581514 1.9132419
-4.5494142 -8.7006083 1.9084717
-4.4550562 -8.7145329 1.9024612
-4.3551741 -8.7835073 1.905705
-4.9118266 -8.6065493 1.9262168
-4.8459296 -8.6134262 1.9210651
-4.7078514 -8.6136713 1.90809
-4.6304336 -8.6604919 1.9089487
-4.973887 -8.5923901 1.9298422
-4.765852 -8.5940657 1.9101889
-5.0669317 -8.4515018 1.9154361
-5.1150961 -8.3563852 1.9044647
-5.8691177 -8.2238159 1.9639018
-5.7963161 -8.2819386 1.9649512
8.7325726 -7.9376755 1.9981148
4.8612108 -7.6004415 1.9902388
2.4376009 -7.5027213 1.9449695
4.1927843 -7.536912 1.902564
4.2648683 -7.5569673 1.9141966
4.3591266 -7.5604858 1.9251828
4.4473467 -7.5520744 1.9333687
4.5416288 -7.5521669 1.9440318
4.6489577 -7.5721254 1.9600804
4.7573838 -7.5910025 1.9762367
-14.116222 -7.4146204 1.9013311
2.4860363 -7.4949956 1.9468845
2.5338459 -7.4851184 1.9483209
-0.63314998 -7.2016492 1.9736798
-0.54481316 -7.2100692 1.974031
-0.43491495 -7.2303133 1.9774985
-0.34592667 -7.229805 1.9760501
-0.25726277 -7.2368813 1.9769719
-0.14646047 -7.2519755 1.9802641
-0.035289165 -7.2635546 1.9830294
0.053846017 -7.2615113 1.9825026
0.14322749 -7.273324 1.986058
0.23257416 -7.2748766 1.9871114
0.3220827 -7.27774 1.9888234
-1.5468423 -7.1355257 1.9933007
-1.4584198 -7.1501837 1.9922471
-1.3481973 -7.1699257 1.9917642
-1.2383109 -7.191082 1.9921155
-1.1441203 -7.1690598 1.9819758
-1.0545064 -7.1720629 1.9790788
-0.96660614 -7.1858974 1.9794738
-0.85532904 -7.1918373 1.9772791
-0.74369282 -7.1924949 1.9740748
-0.67705542 -7.1947474 1.9728897
-15.361991 -4.8482232 1.9208677
-15.436989 -4.7679381 1.9265511
9.1059551 3.6079457 1.9038923
-5.1449642 4.8262339 1.9258785
-5.1286201 4.9003739 1.9365449
3.1547601 5.6785817 1.9501565
3.2603755 5.662199 1.9615139
3.145632 5.7869081 1.9773279
3.2910039 5.7154379 1.9799156
3.1218233 5.8280516 1.9848036
3.3393493 8.238163 1.960942
3.4473844 8.2136669 1.965035
1.5554343 8.8790655 1.9885155
1.6147692 8.8962574 1.9945471
1.3964101 8.936101 1.9951934
1.4471408 8.9023037 1.9895926
1.5030379 8.90096 1.9913158
3.4396172 11.2804 1.9967793
-3.8921542 13.206586 1.9742144
0.34963569 13.274578 1.9040971
0.51323473 13.288081 1.9067938
0.91820401 13.231523 1.901826
1.0829252 13.248856 1.9060842
0.26915738 13.324967 1.911052
0.43226933 13.308788 1.9093487
0.59927499 13.385549 1.9212716
7.2682695 14.400436 1.9234726
6.9105487 14.569985 1.9228806
8.3628054 14.516785 1.9977119
6.8348794 14.641806 1.926788
7.2712607 14.628823 1.9479822
7.7184935 14.617194 1.971071
7.895278 14.732348 1.9930942
-6.9467287 14.966515 1.9675189
-6.8395019 14.975437 1.963138
-5.6557794 14.983648 1.9097377
-5.5558009 14.996654 1.9070145
-6.745451 15.012593 1.9625459
-6.5559654 15.083312 1.961125
-6.0115151 15.079928 1.9357866
-5.9029436 15.075848 1.9305768
-5.4704633 15.049126 1.9093826
-5.3803554 15.088956 1.9102113
-6.4617314 15.119602 1.9606515
-6.1603065 15.181694 1.9536656
-5.2437291 15.296619 1.9282088
-5.1750703 15.403808 1.9376811
-5.0972209 15.486203 1.9440749
-4.9938779 15.491671 1.940878
-4.8870735 15.485091 1.9362602
-4.7822967 15.483478 1.9323529
-4.6757135 15.474508 1.9276167
-4.561543 15.438153 1.9195653
-4.4625974 15.451542 1.9177892
5.0804181 15.643177 1.9612435
5.1772451 15.614537 1.9615986
-9.1962214 26.796043 1.9760697
-9.025588 26.834002 1.9747477
-8.6652803 26.848751 1.9678589
-3.5382764 -11.864421 2.096276
-3.4676189 -11.893481 2.0976117
-3.2531095 -11.830189 2.0774117
-3.153723 -11.895896 2.0837555
-4.0515366 -11.722053 2.0999486
-3.8055122 -11.703691 2.0837555
-3.7399096 -11.746551 2.0872612
-4.141346 -11.634064 2.0909338
-3.9589715 -11.685993 2.0890975
-3.8834655 -11.698835 2.0870943
-4.224895 -11.531619 2.0794151
-4.264535 -11.422347 2.0643904
-4.3072 -11.324083 2.051369
-4.3591499 -11.252392 2.0431888
-13.749693 -10.437767 2.0584531
-13.81189 -10.352013 2.0582163
14.062936 -10.320219 2.0800028
14.101871 -10.21626 2.0764506
-13.894584 -9.5104809 2.0077763
-13.950209 -9.4233789 2.007421
27.310371 -9.0446024 2.006686
-14.601273 -8.8520994 2.0360749
-14.616962 -8.7394114 2.0307467
-6.0260201 -8.7236042 2.0609281
-14.696827 -8.6651926 2.0344172
-6.5045733 -8.6016607 2.0962276
-6.3775606 -8.6523876 2.0893586
-14.754011 -8.5773468 2.0350091
-6.2342501 -8.5675344 2.0595925
-14.796025 -8.480731 2.0335884
-15.069009 -8.3932247 2.0567956
-14.83741 -8.3839226 2.0321674
-6.42313 -8.2807426 2.037077
8.8251324 -7.9234657 2.0081313
8.923008 -7.9129968 2.0193164
9.0314693 -7.9107184 2.0328386
9.1491852 -7.9151459 2.0483642
9.2560472 -7.9088173 2.0613854
9.3707104 -7.9078321 2.0760763
9.5061569 -7.9227791 2.0952744
4.9685922 -7.6129742 2.0054257
5.0673971 -7.6104646 2.0169506
5.1353002 -7.6107984 2.0253518
5.2544718 -7.6347055 2.044524
5.368207 -7.6484675 2.0613265
5.431447 -7.6384645 2.0675735
5.5187378 -7.6612506 2.0828681
3.2613807 -7.5191975 2.0207334
3.3708673 -7.5175991 2.0312662
3.4502397 -7.5088015 2.0373704
3.6808631 -7.518662 2.0639417
3.7437856 -7.5298419 2.0732777
3.8296649 -7.5279026 2.0823741
3.93822 -7.5117216 2.0911117
1.3428357 -7.4121323 2.056509
1.4379011 -7.4168806 2.0625665
1.5310674 -7.4095387 2.0655951
1.6304965 -7.4292884 2.076525
1.7308965 -7.4491339 2.0878496
1.847371 -7.4314823 2.090615
1.9433321 -7.427012 2.0958824
3.1657245 -7.4868002 2.0040965
3.495837 -7.4866099 2.0371311
3.5437891 -7.4694047 2.0383279
3.6102099 -7.4903769 2.0500576
0.39188656 -7.3270011 2.0031769
0.46008074 -7.335083 2.006469
0.5516789 -7.3505301 2.0123949
0.64364409 -7.3638687 2.0180573
0.73490769 -7.365016 2.0206909
0.84794354 -7.3542576 2.021086
0.95953023 -7.3318348 2.0187156
1.0490113 -7.3166447 2.0179255
1.1452408 -7.3446751 2.0293822
1.2446527 -7.3857193 2.0447893
-17.23098 -3.0794871 2.0872252
-17.020657 -2.5058038 2.0514674
-17.117043 -2.3057594 2.0595188
3.4241233 5.7411795 2.0067995
3.5281844 5.7537975 2.0262074
21.518518 6.5101447 2.0934834
21.317343 6.8800502 2.0858805
21.331465 7.0294189 2.0914435
-1.5461082 8.996644 2.0137193
-1.4884844 8.9915094 2.010488
-1.8525251 9.0980854 2.0481861
-1.7605903 9.0725136 2.0387077
-1.6071055 9.0196743 2.0210435
-1.4355891 9.0149393 2.0137193
-1.3827575 9.0399885 2.0173814
1.3557477 9.0391417 2.0163043
4.1680655 11.596295 2.0864265
0.95185053 12.157177 2.0647244
1.0640011 12.150901 2.0652251
1.136973 12.127456 2.062387
1.2158748 12.16538 2.0700665
8.232688 12.112185 2.0999713
0.84858376 12.290397 2.0859258
1.2984067 12.232206 2.0827539
1.3769605 12.255363 2.0880959
1.533232 12.285483 2.096276
0.7742691 12.313085 2.0889306
1.4586334 12.301513 2.0974445
2.9560633 13.841096 2.0294282
2.5368235 13.962269 2.0348217
2.6293979 13.983407 2.0402155
2.7176046 13.979643 2.0420606
2.8074229 13.983085 2.0450413
2.9024055 14.010183 2.0515707
1.3357579 14.194467 2.0443318
-8.0485668 15.0974 2.0401006
1.6827345 16.896124 2.024708
-3.0549712 -12.122047 2.116643
-2.9398246 -12.135715 2.114222
-2.8177044 -12.117644 2.1064594
-2.7539523 -12.181828 2.1146395
-3.108808 -12.023845 2.1027868
-3.4113266 -11.973324 2.1079619
-3.6567278 -11.861925 2.1017017
-15.400431 -10.130026 2.1980515
-15.46563 -10.037502 2.198525
-15.478427 -9.9113607 2.1916575
-4.2396894 -8.926755 2.1800213
-4.1993093 -8.9835634 2.1875608
-4.3239908 -8.8231955 2.1675272
-4.2799554 -8.8706694 2.1726971
21.803003 -8.8936176 2.1926918
-4.4435015 -8.7257748 2.1600952
-4.3741312 -8.7886305 2.1655884
-6.5912514 -8.6060085 2.1071038
-4.5357246 -8.6429195 2.1532018
-4.8511057 -8.5312548 2.164942
-4.7517138 -8.5383768 2.1555715
-4.6382184 -8.5805817 2.1516938
-5.1334004 -8.4159489 2.1746359
-5.0786443 -8.4422674 2.1733434
-4.9296513 -8.4866219 2.1650498
-5.2207294 -8.3274994 2.1681733
-5.1685076 -8.3577147 2.1677425
-5.3119512 -8.2463865 2.1638651
-5.271728 -8.2953081 2.1681733
-5.4438062 -8.1188269 2.1563253
-5.3517084 -8.1424046 2.1494322
-5.6560655 -8.0035181 2.1619263
-5.5618734 -8.0258751 2.1540637
-5.4940686 -8.0860786 2.1565409
-5.8284431 -7.9334664 2.1716201
-5.7096152 -7.9750147 2.1636496
9.6512709 -7.9438777 2.1164758
9.7663956 -7.9386148 2.1309998
9.8841219 -7.9340878 2.1460245
10.03152 -7.9516864 2.167393
10.148446 -7.9434638 2.1820836
-5.905376 -7.8348312 2.1642959
-5.8729315 -7.8920703 2.1701121
-5.7257624 -7.8947721 2.1513708
2.1634669 -7.5105715 2.1338074
2.2409129 -7.5184984 2.1418402
2.3115711 -7.5026665 2.1432886
4.0482311 -7.5517979 2.1125362
4.1392708 -7.5537605 2.1236672
4.2638798 -7.559464 2.1398253
4.3608689 -7.5679197 2.1534703
4.4194708 -7.561976 2.1594548
4.531683 -7.5926275 2.1800413
4.6261225 -7.5912762 2.191771
2.1081953 -7.4912033 2.1245897
2.4734964 -7.4553862 2.144474
0.17275688 -7.301929 2.1926861
0.48721334 -7.3040228 2.1975741
-0.73951936 -7.2158589 2.1775908
-0.64887762 -7.2014947 2.1706903
-0.56167287 -7.2246714 2.1754346
-0.44968274 -7.2142158 2.1699715
-0.3390595 -7.2227144 2.1706903
-0.25040939 -7.2268105 2.1708341
-0.16164221 -7.2264667 2.1699715
-0.050836686 -7.2417665 2.1740925
0.06042663 -7.2653756 2.181185
0.12769817 -7.288487 2.1883733
0.23938093 -7.2832441 2.1876545
0.35146859 -7.28583 2.189811
0.44134566 -7.2896662 2.1923985
-1.5450273 -7.1582527 2.1984367
-1.4512907 -7.1485271 2.1898108
-1.3646953 -7.1719007 2.1916797
-1.2494445 -7.1625161 2.1827185
-1.1382883 -7.1739674 2.1806099
-1.0500759 -7.1869249 2.1804662
-0.95865768 -7.1755328 2.1732779
-0.84788734 -7.1847453 2.1718884
-14.08679 -5.8054366 2.1847084
-14.179965 -5.6412807 2.1882567
-14.057003 -5.6925125 2.1746306
-14.374253 -5.2137842 2.1925149
-14.228719 -5.2600107 2.1751986
-14.340805 -5.0527897 2.1802373
-14.431259 -4.9358244 2.1869793
-14.5894 -4.6917815 2.1974828
-17.472429 -3.9035494 2.1348238
-17.530725 -2.2520549 2.1075909
-17.542246 -2.0350401 2.1058147
-17.576118 -1.9297488 2.1084197
-17.593554 -1.8224813 2.1091301
-17.609346 -1.7149762 2.1097221
-17.690737 -1.6133882 2.1182473
-17.747793 -1.508847 2.1239305
-17.755728 -1.3998421 2.1238122
3.1529233 5.6632252 2.1210761
3.2238626 5.6269789 2.1221647
3.3366613 5.6614571 2.1504664
3.4618161 5.7523289 2.1969621
3.9242206 5.8229909 2.1080093
-29.489403 7.4099617 2.1208706
-29.472361 7.598237 2.1229579
-29.459904 7.7881117 2.125463
-29.452965 7.9799452 2.1284552
21.830942 7.9443302 2.1633003
-29.457275 8.1754551 2.1323516
3.4651175 8.1797638 2.1902151
3.3618655 8.215395 2.1885395
7.093914 8.2730494 2.1183615
7.1683536 8.2567921 2.1254215
7.2648945 8.2650003 2.1389689
-29.438225 8.3650455 2.1346478
6.9899673 8.3572206 2.117789
7.0398459 8.3126755 2.1174076
6.951685 8.4158459 2.1217961
-29.426575 8.5572166 2.1375704
6.9638267 8.5366888 2.1414495
-29.407938 8.7478533 2.1400752
-29.382339 8.936841 2.1421628
-29.345051 9.1225863 2.1434848
-29.313244 9.3103237 2.145294
-29.285929 9.4998608 2.1475205
-29.252657 9.6878452 2.1493993
-29.255035 9.888236 2.1539917
-29.234064 10.282575 2.1615763
-29.206104 10.474555 2.1642203
-29.23123 10.686446 2.1709003
-29.191282 10.875356 2.1728487
-29.14732 11.063115 2.1745882
-1.0504012 11.024793 2.1527071
-0.94835413 11.028075 2.1515622
-0.85074753 11.087281 2.1614845
-3.7010853 12.264387 2.1690624
1.6229329 12.385336 2.1149735
1.8313941 12.758778 2.1824176
1.7648739 12.855733 2.1971083
1.9227928 12.835057 2.1974423
-16.602142 15.445559 2.1115634
-15.133913 -11.198506 2.2449393
-15.526769 -11.052792 2.272646
-15.153431 -11.069706 2.2377167
-15.607294 -10.966447 2.2745404
-15.23637 -10.987554 2.2399664
-16.363243 -10.196989 2.2990501
21.968994 -8.8044882 2.2039108
22.513643 -8.8628283 2.2530513
22.807207 -8.8171511 2.2769725
8.7394829 -7.9228029 2.2929518
10.345837 -7.945426 2.2087107
8.5262938 -7.8737803 2.255935
6.4834194 -7.7305765 2.2256896
4.7689242 -7.6137505 2.2149911
4.8379297 -7.6195912 2.2252846
4.9438066 -7.6300659 2.2415624
5.0512514 -7.6410222 2.2583191
5.1471663 -7.6323814 2.2696896
5.2543206 -7.6387448 2.2858479
5.3294044 -7.646986 2.2980564
1.3912507 -7.5094886 2.2927458
1.4631519 -7.5108995 2.2972023
3.5514061 -7.5437045 2.2762895
3.666477 -7.546411 2.2905114
3.7409403 -7.5226631 2.2936718
4.6914973 -7.5933094 2.2006283
3.5718193 -7.4678144 2.2599607
0.6259656 -7.3453503 2.2131007
-14.217264 -7.2340007 2.2873294
-14.055184 -7.0432987 2.2542579
-14.208225 -6.9031658 2.2650452
-14.138083 -6.9766369 2.2606452
-14.274426 -6.8273878 2.2688775
-14.322318 -6.7426248 2.269871
-14.439764 -6.6899881 2.2819357
-14.401279 -6.5651283 2.2694452
-14.324985 -6.319191 2.2450318
-14.215467 -6.1669607 2.2218959
-14.346673 -6.0157833 2.2306962
-14.232098 -6.0706878 2.2186315
-14.694505 -5.6381173 2.2568128
-14.852652 -4.9783669 2.2461674
-14.70517 -4.8287711 2.219341
-15.171207 -4.7763686 2.2806582
3.5297198 5.7845249 2.2174888
3.9794648 5.7781315 2.2958627
3.6136487 5.8411574 2.2476566
3.9066701 5.824163 2.2949297
3.3050005 8.2933788 2.201107
1.5607157 8.8961277 2.2268405
1.6711828 8.8839436 2.2287555
1.4796368 8.9154282 2.228157
1.765222 8.9306154 2.2444348
-4.0531673 12.858429 2.2827489
-4.1594872 12.918722 2.2979405
-3.9971538 12.957487 2.2959373
2.0199099 12.940892 2.2176421
0.74655616 13.161222 2.2319989
0.59076703 13.299412 2.2540352
0.67016852 13.252209 2.2466898
0.51111317 13.354018 2.2627161
0.4321095 13.448551 2.2782416
0.35173437 13.533743 2.2922647
7.5134649 13.79266 2.2521288
7.4216709 13.825419 2.2499998
7.2432337 14.110273 2.274271
6.2590919 14.287607 2.2366576
6.573575 14.284179 2.2546837
6.4874387 14.327851 2.2552514
0.027534926 15.391551 2.2069926
0.12198304 15.392082 2.2071345
0.21577063 15.344524 2.2004633
-4.042737 15.450502 2.2900262
-0.16150081 15.405578 2.2091217
-0.066975221 15.407269 2.2092636
-16.265789 -19.302139 2.3504982
-3.3586822 -11.848087 2.3937945
-3.2372296 -11.833571 2.3847311
-3.1688635 -11.869335 2.3879747
-3.5393629 -11.792871 2.3933175
-3.8502316 -11.650043 2.3850172
-3.7291818 -11.642524 2.3763354
-3.6573806 -11.66425 2.3761446
-4.5305119 -8.5006218 2.3748975
-4.4976778 -8.5652246 2.385191
-4.6547127 -8.4198914 2.372025
-4.5908999 -8.4880352 2.3792064
-4.9655619 -8.3654051 2.3984766
-4.8627691 -8.3667202 2.3859091
-4.7699499 -8.3836451 2.378129
-5.1253428 -8.2268038 2.389739
-5.0854425 -8.2754698 2.3947661
-5.3267617 -8.1001663 2.3902178
-5.2428112 -8.1344929 2.3860288
-5.1591344 -8.168932 2.3820789
-5.4382601 -8.0526953 2.3957236
-5.3882089 -8.0851049 2.3954842
-5.5672383 -7.9770432 2.3983569
9.0074492 -7.9175038 2.3311136
9.1322098 -7.9283705 2.3507669
9.2298679 -7.9143596 2.3633604
9.3599062 -7.9267259 2.3841586
8.8765697 -7.8995342 2.3097429
5.394146 -7.6395221 2.3057165
5.4759421 -7.655241 2.3205581
2.4240627 -7.5145707 2.3703783
3.8651068 -7.5388536 2.3128977
3.9558198 -7.5440216 2.3255394
4.05404 -7.5612316 2.3422632
4.1691418 -7.5518694 2.3550367
4.260735 -7.5527225 2.367415
4.3638229 -7.5716267 2.3858507
2.4701257 -7.4995551 2.3703783
0.1663781 -7.3105407 2.3928974
0.23374256 -7.3115149 2.3938303
0.30083483 -7.3043404 2.3922753
-1.2178664 -7.2045207 2.3910313
-1.0366309 -7.2040172 2.381701
-0.94797331 -7.214849 2.3812864
-0.83623719 -7.220417 2.3785911
-0.74725401 -7.2268238 2.3775024
-0.65875739 -7.2382903 2.3784356
-0.54595518 -7.2248988 2.3710232
-0.43438989 -7.2214127 2.3673944
-0.34607938 -7.2337952 2.3698826
-0.25795713 -7.2555428 2.375792
-0.14681004 -7.2693591 2.3793166
-0.035307419 -7.2676444 2.3782799
0.053891715 -7.2661047 2.3778133
0.12124983 -7.295269 2.3876102
0.36629397 -7.2665825 2.3809235
-1.5479014 -7.1403694 2.3908758
-1.4615674 -7.1658144 2.3932085
-1.3511214 -7.1854653 2.3925865
-1.2620496 -7.1969123 2.3910313
-1.1479378 -7.1928611 2.3835671
-1.0779916 -7.1787238 2.3754809
-14.670705 -6.5795274 2.3054974
-15.35348 -4.7304068 2.3036523
20.012686 1.5777782 2.3937733
19.975914 1.6982731 2.3905764
19.85832 1.811071 2.3777888
19.602499 2.1522329 2.3515029
19.502661 2.3838289 2.3428595
19.465015 2.5005403 2.3401363
19.439465 2.6186025 2.3389521
19.429914 2.7388017 2.339781
19.384254 2.8537757 2.3363473
4.0284405 5.7730904 2.303638
3.9658406 5.8346672 2.308614
3.7694836 5.9695511 2.3103247
3.8770561 6.0165181 2.3422029
7.0662918 8.2670803 2.3991005
23.162388 10.588376 2.3715451
23.109495 11.257839 2.3937049
22.80257 11.632436 2.3836913
-0.76812142 11.927586 2.3232903
-0.65907013 11.947815 2.3259616
-0.54893893 11.95049 2.3253894
-0.47579688 11.958538 2.3263433
0.85719162 12.107514 2.3593533
0.93334907 12.126495 2.3641236
1.0458267 12.128094 2.3662224
1.1592001 12.136577 2.3698478
1.2363287 12.155603 2.3749998
1.323213 12.261976 2.3973243
-15.323874 12.44713 2.3541079
-3.8449905 13.178593 2.3244007
-3.741873 13.278492 2.3358362
2.8855071 13.53386 2.3430147
2.6668928 13.744386 2.3705599
7.9970894 14.058135 2.3191235
7.8522248 14.206327 2.3274977
7.004066 14.510211 2.3103232
7.1156268 14.513179 2.3177042
6.9518609 14.630699 2.3226719
-28.785011 18.506487 2.3869536
-28.796286 18.764454 2.3973908
-28.6856 18.94409 2.3978083
-3.0108988 -12.172456 2.4373941
-2.9237411 -12.139168 2.4270906
-2.8411379 -12.122473 2.4202213
-2.7621217 -12.119578 2.4162145
-4.1720238 -12.00276 2.4700227
-3.1353087 -12.039597 2.4183133
-3.071038 -12.096665 2.4259458
-4.2505126 -11.990813 2.4728847
-3.5012107 -11.931163 2.4169776
-3.6251893 -11.815039 2.4022853
-4.3825426 -11.676192 2.4242284
-4.2179084 -11.670933 2.4122074
-4.4532208 -11.540524 2.4044795
-4.5522189 -11.481306 2.400759
-13.906874 -10.408049 2.4907265
-14.021427 -10.360169 2.4998105
-14.023862 -9.5845976 2.4356544
-14.157728 -9.4232998 2.4386351
-14.07338 -9.49228 2.4340932
-14.220246 -9.3395128 2.4394867
-14.85185 -9.1148243 2.4986749
-3.8286457 -9.0380344 2.4200208
-14.823662 -8.9727783 2.4846232
-4.0388746 -8.9183607 2.4137969
-3.930671 -8.9708166 2.4147544
-4.233057 -8.8370504 2.4158316
-4.1427217 -8.8566666 2.4106851
-4.4460092 -8.7253141 2.4143953
-4.3658824 -8.7667141 2.4146347
-4.2808285 -8.7978144 2.412241
-4.4744811 -8.6495771 2.40099
-14.86843 -8.5084467 2.4563775
-14.897941 -8.4044104 2.452687
-5.0491638 -8.3305969 2.4017081
-5.5012765 -8.0392075 2.4017081
-5.645505 -7.9326296 2.4005113
9.4942064 -7.9409404 2.4059107
9.6358414 -7.9594293 2.4293802
9.7483921 -7.9522767 2.4454081
9.8864412 -7.9643626 2.4677329
10.016553 -7.968329 2.4879587
4.7411313 -7.6200027 2.4501123
4.8478055 -7.6337976 2.4688115
4.944067 -7.6294012 2.4819798
5.0114408 -7.6303682 2.4922514
3.4600282 -7.5718637 2.4991906
4.4597168 -7.5761042 2.4000726
4.554626 -7.5768428 2.4135044
4.6544232 -7.5839963 2.4293063
1.4451811 -7.4544477 2.4848003
1.5136398 -7.4404006 2.4846447
3.5383804 -7.4985175 2.4891272
3.9373088 5.7356577 2.4759281
4.0048265 5.7204151 2.4851484
3.4486217 5.8720498 2.4235673
3.5484362 5.8351393 2.4304967
3.6553044 5.8478293 2.4543018
3.9046404 5.8017592 2.4888365
3.3920541 5.9415569 2.4348555
3.3504877 8.1893005 2.4156113
3.4268253 8.1607456 2.4164014
3.3026948 8.21597 2.4174547
7.1296654 8.2383347 2.4034088
7.216763 8.2362976 2.4156876
6.9730649 8.3636723 2.4021163
7.0261416 8.3229675 2.4027627
6.936512 8.4243937 2.4072864
1.7301779 8.757 2.436944
1.8086129 8.7303438 2.434047
1.5591222 8.8909874 2.4643342
1.6342547 8.8406544 2.454458
1.3755138 8.9729233 2.4782929
1.4520681 8.922781 2.4680214
1.5053427 8.9051428 2.465651
1.1907502 9.0625973 2.4954116
1.2988497 9.0262957 2.4896176
-17.476942 10.647701 2.4403059
23.907982 10.752355 2.4410837
-0.92907959 10.996498 2.4344289
-0.8610552 10.995177 2.4329209
-1.2091681 11.066489 2.4557552
-1.137939 11.041645 2.4486465
-1.0677195 11.023149 2.4430456
-0.99891621 11.01685 2.4402452
-1.2890342 11.16266 2.4788048
-3.9359651 12.04299 2.4627719
-3.8554137 12.046346 2.4585741
-3.7691002 12.030433 2.4505601
-3.65516 12.054707 2.4485564
-3.5484016 12.102481 2.451514
1.4121166 12.373588 2.4207938
1.5169827 12.605415 2.4679236
-0.95786142 14.479815 2.4570353
2.8287504 16.734013 2.4335256
2.6583753 16.992401 2.4661713
3.7296009 16.953058 2.4890232
-28.664162 19.183552 2.4058104
-28.607639 20.443556 2.4525697
-28.552771 20.670183 2.458693
-1.2730645 35.275272 2.4621024
-1.0560281 35.263477 2.4607804
-0.83918458 35.250343 2.4594584
-4.1806121 -12.269718 2.5196328
-4.4767346 -12.153293 2.517534
-14.976657 -9.4463692 2.5389853
-15.171673 -9.0566978 2.5335917
-15.096441 -8.8866062 2.5118752
-4.6046495 -8.330781 2.5986519
8.5890808 -7.9068012 2.5753117
10.141679 -7.9667511 2.5068488
10.267159 -7.9639354 2.5257387
10.355577 -7.9312277 2.53547
5.5559945 -7.7158103 2.5957549
3.5314343 -7.6043487 2.5170174
5.0848913 -7.6396289 2.5054197
5.159183 -7.6490731 2.5188515
5.2403131 -7.6674495 2.5354438
5.3282948 -7.6441784 2.5438714
5.4325356 -7.6428194 2.559937
3.6383147 -7.5298243 2.5105481
3.7616551 -7.5471735 2.5315375
3.8546228 -7.5588031 2.5472078
3.9426451 -7.5586205 2.559284
4.0618715 -7.5594354 2.5762482
4.1579847 -7.5704846 2.5929246
-1.0931387 -7.2038589 2.5931108
-0.9353931 -7.2041502 2.5853992
-0.84691668 -7.2150865 2.5853992
-0.75905454 -7.2319632 2.587914
-0.64689928 -7.2297149 2.5832758
-0.53635699 -7.2452679 2.585567
-0.44734061 -7.2498922 2.5850639
-0.35831493 -7.2543654 2.5848963
-0.2468289 -7.2550292 2.5834992
-0.13582671 -7.2727757 2.5887523
-0.046536043 -7.2720108 2.5880816
0.042762604 -7.2828684 2.5919375
0.15447657 -7.2811408 2.5918815
0.24436443 -7.2954235 2.597805
0.33404446 -7.29564 2.5991461
0.46676657 -7.264751 2.5907638
-1.4490361 -7.1600118 2.5998166
-1.3158092 -7.1789842 2.5974696
-1.2483864 -7.1833305 2.5947874
-1.1591604 -7.1920648 2.592608
-1.0244067 -7.1967907 2.5870757
-14.122103 -6.0295968 2.5999365
-14.151561 -5.9397788 2.5986011
-17.702116 -2.8158154 2.5702116
-17.545122 -2.0229609 2.5324562
-17.552284 -1.9147314 2.5317464
-17.714535 -1.2748437 2.5466499
1.309173 5.293961 2.5894816
1.2307557 5.3261576 2.5957012
4.187057 5.6787968 2.5109656
3.9075377 5.8836842 2.5136478
3.850034 5.9543014 2.523483
-0.82020426 11.369396 2.514564
-2.1140823 11.457478 2.5701418
1.6315253 12.889975 2.525548
1.7492907 12.868515 2.5244031
1.8737344 12.893703 2.532608
0.75754315 12.954982 2.522495
7.7538872 13.075437 2.5738938
0.44952089 13.268896 2.5806918
0.69116855 13.21034 2.5713422
6.6374698 13.549884 2.5546956
6.9685473 13.586839 2.5854127
7.2538066 13.524041 2.5984342
10.244272 14.11978 2.5013719
0.11197432 14.780207 2.50261
0.24894817 14.830729 2.5114579
-0.16529028 15.258916 2.5837433
-0.071799122 15.289221 2.5887516
-0.35416818 15.326709 2.595763
-0.25970036 15.303947 2.5915895
-28.581213 21.779455 2.5064266
-28.422617 22.21517 2.5162375
-5.1504097 -12.538707 2.6348815
-5.0458217 -12.501802 2.6205709
-5.5650611 -12.447407 2.650337
-5.4767261 -12.454361 2.6446128
-5.3873467 -12.457998 2.6383162
-5.2543364 -12.464024 2.6292527
-3.2333922 -11.750684 2.6885133
-3.3618779 -11.656143 2.676127
-3.7460053 -11.513846 2.6709569
-3.6705444 -11.521728 2.6675103
-3.5600114 -11.54097 2.664279
-3.4600792 -11.594824 2.6692336
-14.897161 -10.58894 2.6207416
26.891815 -9.2737055 2.6488652
27.219873 -9.2003479 2.6755681
-4.0364127 -8.9146309 2.6716049
-3.9796751 -8.934824 2.6702881
-4.1250715 -8.820734 2.6584365
-4.0801468 -8.8660345 2.664494
-4.2455263 -8.7268829 2.649482
-4.1745629 -8.7856722 2.6555395
-16.669416 -8.6108675 2.6902912
-16.539997 -8.6729937 2.6779425
-4.4178667 -8.6062813 2.6410542
-4.3412914 -8.6521263 2.642766
-4.4532042 -8.5456476 2.6307828
-4.5175848 -8.4155588 2.6076064
-4.4649606 -8.4414139 2.6070797
-5.1557622 -8.3911657 2.688724
-5.0489354 -8.3895674 2.6731851
-4.9599442 -8.3573399 2.6531692
-4.7616343 -8.3110104 2.6149807
-4.6674757 -8.3234062 2.6052363
-4.5622144 -8.3749733 2.6036561
-5.4433823 -8.2237616 2.6924109
-5.3875446 -8.24893 2.6897774
-4.8520503 -8.2910347 2.6226184
-5.4534359 -8.1301203 2.6726584
13.384219 -8.1606474 2.6541924
-5.5468392 -8.0540428 2.6698492
11.060644 -8.0483856 2.6589234
11.183966 -8.0336275 2.6766686
-5.6556387 -7.9481382 2.663177
8.7465305 -7.9531517 2.6078396
8.8300381 -7.930655 2.6181798
8.9398966 -7.9307609 2.6362748
9.0405369 -7.9214497 2.6515694
9.1775799 -7.9425125 2.6774194
9.2840414 -7.9355407 2.694222
-5.7396612 -7.860219 2.6571198
-5.8369489 -7.7412357 2.6468484
-5.7870355 -7.7738094 2.6457949
4.360949 -7.6048326 2.6317408
4.4210124 -7.6011128 2.6397917
4.551815 -7.6095777 2.6619313
4.6511679 -7.6155043 2.6788955
4.7574902 -7.6309757 2.6995974
2.4817929 -7.5578618 2.6031389
2.5498691 -7.5306125 2.6017394
4.253315 -7.5777578 2.6087389
4.4826536 -7.5994163 2.648705
1.3545198 -7.4122982 2.6816268
0.2893849 -7.3003764 2.600152
0.37934089 -7.3038025 2.6028342
0.42453149 -7.3079209 2.6051812
1.3983999 -7.3955159 2.6786091
1.4432095 -7.3840227 2.6776032
-1.5592874 -7.1396704 2.6008224
-1.4501188 -7.1654196 2.6018286
-1.3617648 -7.1809568 2.6011579
-14.349083 -6.8692522 2.6935904
-14.364205 -6.7684703 2.6885822
-14.430511 -6.6918201 2.6932564
-14.421964 -6.5806389 2.6840746
-14.431488 -6.4782948 2.6783988
-14.312222 -6.31953 2.6490171
-14.204219 -6.167973 2.6219728
-14.2005 -5.858099 2.6009383
-14.245316 -5.77456 2.6026077
-14.342652 -5.6100879 2.6076159
-14.290555 -5.6910563 2.604444
-14.602978 -5.302515 2.6304867
-14.488795 -5.3619041 2.6157959
-14.637095 -5.2134748 2.6308205
-14.617614 -5.1056833 2.6216388
-15.111953 -5.0711489 2.6989324
-14.827765 -5.0772204 2.6536915
-15.131545 -4.9746332 2.6969292
1.6221627 5.2879014 2.62637
1.2821635 5.3247285 2.6006339
1.3520765 5.3269806 2.6096416
1.5794263 5.3229427 2.6364498
3.9508076 5.7722311 2.682272
3.6490057 5.9775696 2.6855543
4.5530119 6.057579 2.6968822
3.7182565 6.60676 2.6980557
2.7526436 7.5767918 2.6379719
2.8569546 7.5731335 2.6487017
2.9322171 7.5611749 2.6538332
3.3513386 8.140974 2.6429546
3.4673643 8.1375446 2.6554618
7.2314234 8.1980219 2.695189
3.2887595 8.2026272 2.653018
7.0472322 8.2920084 2.6829808
7.1267056 8.2308016 2.6842973
6.9616761 8.3980465 2.6894441
7.0018387 8.3417864 2.6851351
1.6694794 8.7737627 2.6811957
1.7712927 8.7244587 2.6725698
1.3514847 8.8690319 2.6932719
1.4598341 8.8494158 2.692553
1.568027 8.8294277 2.6921217
-3.0365567 11.596825 2.6444607
-2.9510911 11.559414 2.6317511
-2.8397937 11.566588 2.6273351
-2.6455667 11.536982 2.6110709
-2.5753646 11.555857 2.6117172
-2.4996598 11.549489 2.6067626
-3.1198075 11.623245 2.6548007
-0.70441198 11.776316 2.6024542
-0.63664055 11.864277 2.6209803
-0.5675844 11.946969 2.6384289
-0.45875186 11.982858 2.6453223
0.97776139 11.988016 2.6532927
-1.6537642 12.045134 2.6820509
-1.5353395 12.0013 2.6690183
-0.35152823 12.091071 2.6683719
0.83266681 12.029312 2.6599708
0.90484655 12.002553 2.6552315
1.05369 12.009028 2.6593244
1.1303697 12.034421 2.6664331
1.2060387 12.045721 2.670526
-0.20396204 12.14427 2.6793582
-3.6427884 13.013838 2.6268675
-3.6260152 13.266988 2.673425
-3.5331581 13.246305 2.6648386
2.8491762 13.451147 2.6726618
2.6492243 13.52703 2.6793401
2.7428761 13.563437 2.6898346
7.3828449 13.564146 2.6147943
7.4921503 13.56606 2.623976
7.2227464 13.666799 2.6172984
0.63712639 13.79974 2.6852551
7.1542339 13.740594 2.6229744
6.8702393 13.809924 2.6116223
6.5367703 13.990448 2.6146274
6.2849588 14.123712 2.6174653
-2.7958343 -12.357061 2.7948217
-2.9349968 -12.270536 2.7831893
-2.9743516 -12.106256 2.750015
-15.116558 -12.054166 2.7723312
-3.0454738 -12.075468 2.7472146
-3.1410942 -11.839917 2.7021923
-3.0749912 -11.884493 2.7080088
-4.4363494 -11.657507 2.751523
-4.3691792 -11.696401 2.7543232
-3.875067 -11.666724 2.7118862
-4.5604291 -11.554955 2.7403212
-4.4933252 -11.592735 2.7426908
-14.967631 -11.491165 2.7057624
-4.6170444 -11.491416 2.73192
-16.919186 -9.1382732 2.7572858
27.624594 -9.1486654 2.7097809
21.709858 -8.8644638 2.7962284
-5.3344994 -8.3342924 2.7014971
-5.2563238 -8.3810244 2.7008388
11.694277 -8.1845245 2.7745538
11.336346 -8.0380964 2.701283
9.4325476 -7.9628348 2.7230878
9.5329819 -7.9479556 2.7379518
9.6705256 -7.9625573 2.7633708
9.7964811 -7.9659104 2.7853434
3.5286493 -7.6162863 2.7468247
4.856864 -7.632853 2.7159867
4.9675589 -7.6505575 2.7384136
5.0338888 -7.6495361 2.7490523
5.1468172 -7.6664252 2.7720542
5.2495985 -7.6662178 2.7893062
3.5753157 -7.5944915 2.7468247
3.6372244 -7.5449514 2.7409155
3.7488289 -7.5384517 2.7550664
3.8436587 -7.5540929 2.7735715
3.9321251 -7.5550165 2.7871003
2.4362884 -7.4581037 2.7922714
-1.060456 -7.2038331 2.792191
-0.94821304 -7.2070079 2.7874768
-0.83812308 -7.2255521 2.7893267
-0.74890757 -7.2306499 2.7875364
-0.66038859 -7.2420835 2.7886105
-0.54853153 -7.2421494 2.7850897
-0.436719 -7.2393627 2.7810917
-0.34847116 -7.2567663 2.7859254
-0.25937802 -7.2600298 2.7857461
-0.14789848 -7.258585 2.7840157
-0.036564104 -7.2701716 2.7878942
0.03043795 -7.2949777 2.7973826
0.12003303 -7.2987227 2.7991729
0.27655467 -7.2897625 2.7973824
0.3420161 -7.2524338 2.7841351
-1.5178701 -7.1010141 2.784493
-1.4746495 -7.1120224 2.7852092
-1.2392402 -7.1889782 2.7973826
-1.1494455 -7.1944256 2.7938023
-1.5602078 -7.0860958 2.7823448
-30.02347 0.75931877 2.796658
-30.000334 0.94296199 2.7949891
-29.953188 1.12549 2.7911875
-29.887028 1.3066921 2.7857172
-29.837675 1.4880176 2.7819157
-29.818041 1.670513 2.7809885
-29.759529 1.8504755 2.7765381
-29.723774 2.0314124 2.774313
1.4334873 5.2762647 2.7546985
1.2515297 5.3083372 2.7477994
1.3387442 5.311841 2.759948
1.5708998 5.3271065 2.798193
3.8878651 5.8714876 2.7003531
3.9269402 5.8521738 2.7025015
3.7735853 5.9737215 2.7094831
3.8496866 5.9316444 2.7116313
3.6050918 6.0720439 2.7078722
4.6488981 6.0295763 2.7096233
4.946754 6.0242958 2.7741661
4.4958806 6.1766362 2.7188437
4.397944 6.2006044 2.7054322
4.4738398 6.2262936 2.7285669
5.3666096 6.4345655 2.7418485
3.7142098 6.6953578 2.7248788
5.032855 6.8480349 2.7810357
5.0158572 6.913404 2.7950311
4.4713902 10.290553 2.7662852
4.5672755 10.252019 2.767123
4.6628709 10.212688 2.7679608
-1.027058 10.98277 2.7196059
-0.95990306 10.991767 2.720324
-0.89228374 10.995514 2.7198453
-0.75621825 10.990137 2.7160153
-1.2352072 11.017002 2.7332506
-1.1665623 11.014719 2.7308569
-1.0970286 11.002347 2.7260692
-0.82494491 11.002718 2.720324
-0.69168365 11.041084 2.7275054
-0.55599409 11.045832 2.7267873
-0.48632187 11.006356 2.7162547
-0.42280179 11.114887 2.742347
-0.35412988 11.102715 2.7387564
-0.15050338 11.166574 2.7533586
-0.081784151 11.140102 2.7466559
-4.4296227 11.538809 2.7265346
-4.3539171 11.552979 2.7235186
-4.282609 11.578561 2.7233033
-4.8134594 11.67399 2.7855589
-4.7171698 11.642667 2.7711258
-4.2134824 11.610127 2.7245958
-4.1513343 11.661522 2.7306275
-4.0571733 11.622237 2.7155483
-3.9599063 11.688158 2.7223339
-3.859019 11.745045 2.7271807
-3.791965 11.784305 2.7308428
-3.7198801 11.808282 2.7310584
-3.6531096 11.849547 2.7353666
-3.5814612 11.87548 2.7362282
-3.5093558 11.900042 2.7368746
-3.4311337 11.903522 2.7327816
-3.3704715 11.968529 2.7429063
1.3151337 12.369222 2.7439833
0.55801505 13.942669 2.7123499
5.7632952 15.436702 2.7899153
-2.8808992 -12.379621 2.8038692
-4.3749671 -11.934784 2.8040848
-13.8376 -9.2171965 2.8151233
-13.858466 -9.1088305 2.8079448
-13.944704 -9.0434742 2.8141217
-13.967541 -8.9370165 2.807611
21.949076 -8.8053989 2.8200276
22.367601 -8.8143559 2.8667972
-4.2962494 -8.6478682 2.898854
-4.3534794 -8.5643892 2.8841901
-4.5251288 -8.4478464 2.877002
-4.4462805 -8.4873981 2.8764269
-4.8581209 -8.318572 2.8919535
-4.7573862 -8.3208685 2.8774333
-4.6373873 -8.3472748 2.8666511
-4.55721 -8.3837385 2.8646383
8.5457869 -7.9194617 2.8725703
9.9510126 -7.9906378 2.8152864
10.077136 -7.9907093 2.8370435
10.204401 -7.9901338 2.8590162
10.329718 -7.9865031 2.8803422
10.410351 -7.9472651 2.8891745
4.4451065 -7.6044569 2.8824244
4.5421667 -7.6089835 2.8998408
5.3396711 -7.6960287 2.8120208
5.4388051 -7.6867423 2.8268285
4.0596056 -7.5715084 2.8113589
4.1599016 -7.5901551 2.8323519
4.2488718 -7.5859041 2.8452587
4.3465834 -7.5956135 2.8637638
0.075304389 -7.304924 2.801321
0.16506787 -7.3090506 2.8034692
0.20988543 -7.3069668 2.8031113
0.39157972 -7.3453016 2.8206553
-1.4436761 -7.1841002 2.8099141
-1.3530158 -7.1883302 2.8049014
-30.191645 -1.0895995 2.8132546
-30.156809 -0.53280598 2.8086185
-30.137608 -0.34750471 2.8065789
-30.12822 -0.1625182 2.8055589
-30.106745 0.02233189 2.803519
-30.107037 0.20706983 2.8036118
-30.086283 0.39155304 2.8018501
-30.071367 0.57592285 2.8007376
19.789371 1.9133433 2.8508229
19.77145 2.2796578 2.8538036
19.663738 2.389586 2.8403194
19.60466 2.7494764 2.8386161
19.781782 3.0222902 2.8694167
19.91048 3.1670928 2.8908494
1.6422175 5.3270526 2.8085418
1.7291009 5.373651 2.8440871
4.9484167 6.1407914 2.8066888
4.9962916 6.2786689 2.8556406
5.1960273 6.2105231 2.8817933
3.7090864 6.42554 2.8450022
3.6550813 6.5153599 2.8646946
3.7171571 6.5317621 2.8818805
5.1979313 6.9824572 2.8485243
5.2710028 6.9906516 2.8650079
5.0452838 7.0444989 2.8354621
5.3587904 7.0170941 2.8892665
-29.450132 7.4000936 2.8276258
2.9413323 7.4821301 2.8611732
3.0187237 7.4761815 2.8693876
-29.409956 7.5821486 2.8281822
2.8585672 7.5423574 2.8705611
-29.398497 7.7718778 2.8316126
3.2370758 8.1244678 2.8618977
3.3540726 8.1267586 2.8769817
3.4359455 8.1126585 2.8830464
-29.385347 8.545228 2.8496928
1.4703741 8.6982784 2.8867784
1.5470855 8.6660948 2.8807137
1.6558573 8.6595173 2.8850679
1.790694 8.6438475 2.8886445
-29.361948 8.7341728 2.852567
1.4223177 8.7399693 2.8976636
-29.323997 8.919095 2.8541431
-29.290586 9.1056547 2.8562758
-29.256939 9.2924404 2.858501
-29.237255 9.4840717 2.8622098
-29.209703 9.6736202 2.8652694
-29.18187 9.8635054 2.8684218
-29.157509 10.055036 2.8720379
-1.1323572 10.380283 2.8506951
-1.0659779 10.361126 2.8435843
-1.3405919 10.493565 2.8880935
-1.2345257 10.425411 2.8661022
-2.2406149 11.374704 2.8583272
-2.1339021 11.38489 2.8558137
-2.553225 11.469831 2.8971069
-2.4460273 11.485781 2.8953116
-2.3572402 11.412144 2.873049
-2.033062 11.426942 2.8615589
1.4361963 11.468756 2.8497095
1.546845 11.493111 2.859165
-1.9436572 11.539046 2.8850181
-0.65141284 11.531749 2.8476746
1.3476628 11.628621 2.886215
-4.9114432 11.70727 2.800638
1.4288979 12.697647 2.818733
1.6743201 12.760207 2.8389823
1.5358008 12.933007 2.8730183
0.50334793 13.091349 2.8900361
0.74406517 13.076941 2.88939
0.82140136 13.026323 2.8792653
0.42320061 13.100046 2.8913286
-0.39860788 14.494136 2.8184397
0.22488645 14.54794 2.828171
-0.13318677 14.657053 2.84916
0.046544015 14.612429 2.8403828
-0.31511679 14.751473 2.8680501
-0.22414926 14.723684 2.8623259
-0.043641303 14.790113 2.8749192
0.13810647 14.816038 2.8800712
-15.662556 -13.629807 2.9771476
-15.685836 -13.481829 2.9657927
-4.3326945 -12.654171 2.9505684
-5.2210307 -12.54735 2.9979601
-5.1140041 -12.505936 2.9805114
-4.4682865 -12.545788 2.9378586
-5.4420929 -12.428548 2.9930055
-5.5716529 -12.311008 2.9809422
-5.471385 -12.289653 2.9675863
-5.288106 -12.281426 2.9497068
-3.5676787 -11.555644 2.9817281
-3.3992031 -11.509164 2.9587474
-3.6113496 -11.447423 2.9594655
-3.4436505 -11.40165 2.9364851
-13.501679 -10.910419 2.9391603
-13.589179 -10.843973 2.9436677
-13.859191 -10.647868 2.9591932
-13.878704 -10.528069 2.9495106
-14.17651 -10.482409 2.9852359
-13.928837 -10.432073 2.9465058
-14.05899 -10.262685 2.9471736
-14.612414 -9.2237587 2.9258051
-3.7225909 -9.0430527 2.9358015
-3.9316945 -8.9222069 2.9270318
-3.8501925 -8.9598141 2.9276068
-3.7921619 -8.9762115 2.9253066
-15.005707 -8.84025 2.948843
-14.798826 -8.841136 2.9187934
-4.1608586 -8.847311 2.9350824
-4.0460529 -8.8846159 2.9307697
-15.052847 -8.7440481 2.9475074
-4.2485886 -8.7533817 2.9209938
22.735191 -8.7984333 2.9069359
-5.2636886 -8.352438 2.9638352
-4.960319 -8.3751354 2.9221439
-5.2890549 -8.2239399 2.9353702
-4.9844928 -8.2993822 2.9063299
-5.4011917 -8.1759968 2.9416957
-5.3294797 -8.1760874 2.9299071
-5.8717737 -8.0046091 2.9802244
-5.7961454 -8.0040274 2.9667106
-5.4376693 -8.0155735 2.9077675
-5.3995733 -8.0655012 2.9138055
-5.7018094 -7.9763288 2.9434209
