# .PCD v0.7 - Point Cloud Data file format
VERSION 0.7
FIELDS x y z
SIZE 4 4 4
TYPE F F F
COUNT 1 1 1
WIDTH 1467
HEIGHT 1
VIEWPOINT 0 0 0 1 0 0 0
POINTS 1467
DATA ascii
0.97881269 0.94005263 0.19459687
0.98213893 0.94522631 0.12693116
0.98390931 0.94858545 0.05943279
0.98631704 0.95223618 -0.0081356307
0.99328721 0.95930058 -0.07623712
0.98909283 0.95324981 -0.35576877
1.0116134 0.97019762 -0.5170989
1.0787439 1.0313318 -0.63780522
1.1122949 1.058588 -0.75024855
1.0011827 0.94714379 0.26789585
0.97881722 0.92857885 0.19346137
0.98575532 0.93712413 0.12665302
0.98681736 0.93977451 0.059259009
0.99141759 0.94547617 -0.0081296964
0.99481994 0.94905251 -0.075906374
0.97202343 0.92762887 -0.14098345
0.98931408 0.94182301 -0.35376304
1.0318502 0.97752202 -0.52436739
1.0870575 1.0265874 -0.63898414
1.1115683 1.0449736 -0.74541956
0.99621707 0.9309296 0.26503372
0.97582889 0.91443318 0.19175811
0.98640603 0.92628682 0.12600398
0.99329281 0.93438631 0.059302457
1.0001118 0.94211787 -0.008153433
1.0064379 0.94840872 -0.076347366
0.98131537 0.92505813 -0.14150523
1.0014273 0.93973494 -0.42984036
1.0412539 0.97437751 -0.52609795
1.0893016 1.0161345 -0.6366263
1.1212512 1.0411904 -0.74761456
1.0040743 0.92679679 0.26560614
0.97415698 0.90170425 0.19033873
0.99061108 0.91886264 0.12581855
0.99242049 0.92215353 0.05891145
1.0007491 0.9311952 -0.0081118941
1.0085839 0.93881398 -0.076071747
0.98915654 0.92105269 -0.14181828
1.0000879 0.92895287 -0.35351232
1.0071746 0.93357265 -0.42984036
1.0561694 0.97624886 -0.53059745
1.0880772 1.0025774 -0.63230354
1.1243081 1.0312543 -0.74541956
1.085838 0.98653281 0.36170447
1.0177214 0.92789346 0.26770502
0.97309637 0.88969851 0.1890613
0.99769872 0.91411233 0.12600398
0.9995321 0.91739792 0.058998339
1.0138065 0.93180412 -0.0081712352
1.0099154 0.92855293 -0.075741
0.99698538 0.91698581 -0.14213136
1.0149956 0.92930853 -0.43073648
1.0517468 0.96026117 -0.5254057
1.0867279 0.98907381 -0.62798077
1.1166316 1.0116677 -0.73620057
1.0817542 0.97077292 0.35835314
1.0314195 0.92885727 0.26980394
0.97927177 0.88437438 0.18920323
0.99073851 0.89661539 0.12442777
1.0014416 0.90789253 0.058781113
1.0150626 0.92153299 -0.0081356307
1.0104197 0.91763973 -0.075355127
1.0084821 0.91620123 -0.1429662
1.0178473 0.9205026 -0.42954165
1.0624962 0.95818794 -0.52782851
1.0845702 0.97501004 -0.62326497
1.1275049 1.0089914 -0.73927355
1.0956827 0.97120148 0.36098632
1.0304984 0.91663939 0.26808664
0.97950894 0.87373656 0.18820967
0.99325204 0.88786513 0.1240569
1.0032721 0.89839834 0.058563888
1.0184643 0.91328454 -0.0081178285
1.0227206 0.91742325 -0.075851247
1.0140848 0.90999609 -0.1429662
1.032017 0.92186916 -0.43312615
1.0704572 0.95352268 -0.52886689
1.0822811 0.96101022 -0.61854923
1.1383872 1.0062194 -0.74234653
1.0913941 0.95550638 0.35763499
1.0427403 0.91613024 0.26980394
0.9870798 0.86967307 0.18863548
0.99718839 0.88043594 0.12387147
1.0057722 0.88957793 0.058390111
1.0158147 0.8997249 -0.0080525531
1.0178678 0.90186048 -0.075079501
1.015928 0.90045828 -0.14244442
1.0138814 0.89643496 -0.35050371
1.0727658 0.94383788 -0.52713633
1.083318 0.95010716 -0.61579841
1.1452166 0.99980634 -0.74278557
1.1038463 0.95450729 0.35978943
1.0468591 0.90842813 0.26942232
0.99463761 0.86554956 0.1890613
1.0085753 0.87953603 0.12461321
1.0164784 0.88799083 0.058694225
1.0250794 0.89676708 -0.0080822241
1.0136144 0.88704967 -0.074362889
1.0236789 0.896173 -0.14275749
1.0403742 0.90662736 -0.43193132
1.0799533 0.93846852 -0.52782851
1.0793968 0.93501318 -0.61029667
1.1499689 0.99158716 -0.74190754
1.1030375 0.94204134 0.35763499
1.0583762 0.90709805 0.2709488
1.0051847 0.8639468 0.19005486
1.0048999 0.86553341 0.12350059
1.0158566 0.87651592 0.058346666
1.0313191 0.89111423 -0.0080881575
1.0250814 0.88603705 -0.074803881
1.0269015 0.88792348 -0.14244442
1.0116371 0.8741079 -0.20768991
1.027005 0.88582242 -0.35125586
1.0459175 0.90022665 -0.43193132
1.0920986 0.93732369 -0.53094357
1.0823188 0.92598134 -0.60872477
1.147139 0.97693926 -0.73620057
1.0991488 0.92711741 0.35452306
1.0669191 0.90312374 0.27171203
1.0157493 0.86224705 0.19104843
1.0124669 0.86128664 0.12377875
1.0143721 0.86443418 0.05795566
1.0268791 0.87633067 -0.0080110151
1.0183485 0.86935794 -0.073921889
1.0255238 0.87579298 -0.14150523
1.0214913 0.87173283 -0.20861092
1.0324209 0.87950414 -0.35125586
1.0514215 0.89379209 -0.43193132
1.1014078 0.93363833 -0.53267419
1.0816587 0.9139815 -0.60518795
1.1033248 0.9191128 0.35404429
1.0799717 0.90285635 0.2736201
1.0217794 0.85663426 0.19119036
1.0238315 0.86018199 0.1245205
1.0196571 0.85819387 0.05795566
1.0245906 0.86356884 -0.0079516741
1.0251902 0.86438036 -0.074032143
1.0316385 0.87012523 -0.14160958
1.0358878 0.87309062 -0.21045296
1.0503079 0.88180113 -0.42924294
1.1121513 0.93107837 -0.535097
1.0780684 0.8996681 -0.60007924
1.1074439 0.91109192 0.35356551
1.0786784 0.89058799 0.27190283
1.0376906 0.85918665 0.19317749
1.0298564 0.85451949 0.12461321
1.025672 0.8525598 0.057999104
1.0283329 0.8559863 -0.0079398053
1.0297074 0.85743469 -0.073977016
1.0361938 0.86314231 -0.14150523
1.0412254 0.86671811 -0.21045296
1.0498371 0.87233663 -0.35351232
1.05276 0.87290335 -0.4280481
1.1221817 0.92782378 -0.53717369
1.1152742 0.90611637 0.35428366
1.0818403 0.88209164 0.27133042
1.0567365 0.86408216 0.19573237
1.0258385 0.84061122 0.12350059
1.0355171 0.85005373 0.058259774
1.0312483 0.84775537 -0.007922003
1.0388051 0.85427141 -0.074252635
1.0437747 0.85866362 -0.14181828
1.0625539 0.87349057 -0.21367653
1.046412 0.85991484 -0.27974573
1.0544215 0.86526448 -0.35326159
1.0640033 0.87126434 -0.43043777
1.1351206 0.92685449 -0.54063487
1.0633531 0.86547405 -0.58593196
1.1245996 0.9022941 0.35548058
1.0818802 0.87112749 0.26999474
1.0712602 0.86504453 0.19743563
1.035621 0.83805907 0.1240569
1.0414895 0.84431309 0.058303218
1.0395361 0.84393287 -0.0079457397
1.0378267 0.84284568 -0.073811643
1.0443922 0.84848028 -0.14119217
1.0717293 0.87006849 -0.21444406
1.0744814 0.87199163 -0.28581396
1.0589588 0.85816884 -0.35301089
1.0737817 0.86831981 -0.43223003
1.1393257 0.91869426 -0.53994262
1.1301147 0.89537674 0.35548058
1.0910467 0.86752748 0.2709488
1.0765479 0.85845512 0.19743563
1.044633 0.83479679 0.1245205
1.0482103 0.8391555 0.058390111
1.0485958 0.840666 -0.0079754107
1.0437577 0.8370865 -0.07386677
1.0557847 0.84703493 -0.14202701
1.0739639 0.86100376 -0.21383004
1.0798116 0.86538231 -0.28581396
1.0694953 0.85588914 -0.35476592
1.0940043 0.87362522 -0.43820417
1.147877 0.91402388 -0.54132712
1.1508815 0.90039092 0.36026821
1.1048421 0.86748493 0.27304769
1.0911274 0.85918206 0.19913888
1.0497355 0.82837135 0.1245205
1.0572582 0.83580583 0.058607336
1.0545183 0.83483684 -0.0079813441
1.0582672 0.8381052 -0.074528262
1.0804508 0.85598058 -0.14463587
1.0792267 0.85439783 -0.21383004
1.0851011 0.85874045 -0.28581396
1.0762458 0.85051113 -0.35526735
1.1045898 0.8710326 -0.44029513
1.1615763 0.9133423 -0.54513437
1.1078167 0.85888499 0.27247527
1.0901271 0.84761 0.19800338
1.0642234 0.82925868 0.12563311
1.0647293 0.83114713 0.058737669
1.059621 0.82835072 -0.0079813441
1.0877723 0.85066366 -0.07623712
1.0825493 0.84688377 -0.14421844
1.0860059 0.84897691 -0.21413705
1.0895782 0.8514632 -0.28561169
1.0822074 0.84448695 -0.35551807
1.1227144 0.87420607 -0.44537315
1.1745691 0.91195142 -0.54859555
1.1177427 0.85565156 0.2736201
1.0929519 0.83909672 0.19757757
1.0779723 0.82939196 0.12665302
1.0943387 0.84350568 0.060084466
1.0876397 0.83955324 -0.008153433
1.0913907 0.8427527 -0.076126866
1.0900866 0.84204936 -0.14453152
1.0872836 0.83927834 -0.21336953
1.0940068 0.84416336 -0.28540939
1.0132557 1.1678668 -0.35326517
1.090436 0.84019417 -0.35652092
1.1280574 0.86730075 -0.44537315
1.1190562 0.84581763 0.27266607
1.0949246 0.82998282 0.19700982
1.0782839 0.81914818 0.1260967
1.0979037 0.83556497 0.059997577
1.0967473 0.83589458 -0.0081831031
0.94787276 1.0726242 -0.040483452
1.0965413 0.8360402 -0.076126866
1.0960236 0.83594799 -0.14463587
1.0924128 0.83259106 -0.21336953
1.1007239 0.8386218 -0.28581396
1.0191158 1.1601627 -0.35281971
1.0932595 0.83172917 -0.35576877
1.1394389 0.86497909 -0.44776282
1.1077378 0.82002884 0.41375235
1.1257985 0.84010947 0.27304769
1.0952415 0.81969017 0.19615819
1.0824932 0.81191909 0.12600398
1.0998152 0.82641202 0.059823796
0.92181969 1.0292467 0.028701276
1.1042526 0.83095312 -0.0082009053
0.93177521 1.0414592 -0.039522253
1.0992572 0.82749468 -0.075961493
0.92683822 1.0370332 -0.10750856
1.1011322 0.82920718 -0.14463587
1.0967114 0.82527834 -0.21321602
1.1042836 0.83067465 -0.28540939
1.0249195 1.1524308 -0.35237423
1.1022124 0.82791239 -0.35702237
1.1515977 0.86312258 -0.4504512
1.1096554 0.81095594 0.41260222
1.1285611 0.83143914 0.27247527
1.0906969 0.80589551 0.19445494
1.0834538 0.80229902 0.12554039
1.1072724 0.82143384 0.059954129
0.93416184 1.030237 0.028888186
1.1085278 0.8235656 -0.0081949709
0.93412155 1.0312772 -0.039352629
1.1091223 0.8243078 -0.076292239
0.91980493 1.0165408 -0.10596722
1.1069975 0.82302856 -0.14474022
1.1009613 0.81794423 -0.21306252
1.0129633 1.1230372 -0.26830754
1.1125046 0.82621884 -0.28621849
1.0182726 1.1309063 -0.34769669
1.1127148 0.82517022 -0.3587774
1.0000151 1.1125803 -0.42077422
1.1530362 0.85320199 -0.44895765
1.1239312 0.8108564 0.41605255
1.1329253 0.82095838 0.34494781
1.1360232 0.82623094 0.27304769
1.1044183 0.80560482 0.19601625
1.0827295 0.79152268 0.12489136
1.0929476 0.80045688 0.05891145
0.93776125 1.0215397 0.028805114
1.1159792 0.81852251 -0.0082127741
0.93029779 1.0144751 -0.038928572
1.1141593 0.81748682 -0.076292239
0.92400455 1.0086722 -0.10573602
1.1096214 0.81445521 -0.14442717
1.1019754 0.80825132 -0.21229501
1.0085478 1.1044403 -0.26533797
1.1191329 0.82053524 -0.28662306
1.0179683 1.116712 -0.34524655
1.1247869 0.82347393 -0.36103386
1.0009919 1.1000155 -0.41833729
1.1621028 0.84892577 -0.4504512
1.1837898 0.86223596 -0.54028875
1.1351266 0.80838954 0.41835278
1.1758462 0.84110564 0.3564381
1.1530323 0.82783234 0.27590981
1.1085373 0.79823464 0.19587432
1.0827215 0.7813682 0.12433506
0.95672661 1.0283675 0.097971976
1.0929807 0.79022354 0.05865078
0.93924737 1.01064 0.028659739
1.1258403 0.81517833 -0.0082483785
0.94058561 1.0131433 -0.039098196
1.1215802 0.81239223 -0.076457612
0.92746437 1.0000595 -0.10542774
1.1162087 0.80879849 -0.14463587
0.95699024 1.0337042 -0.17895669
1.1085148 0.80263358 -0.212602
1.0026058 1.0844942 -0.26201907
1.1249398 0.8142271 -0.28682533
1.0016605 1.0853703 -0.33745065
1.130603 0.81712389 -0.36128458
1.000548 1.0860649 -0.41535884
1.168064 0.84233743 -0.4507499
1.1974372 0.86098081 -0.54409605
1.1306628 0.7947998 0.41490245
1.1722605 0.82771468 0.35380492
1.1749089 0.83266139 0.27991682
0.96131128 1.0192385 0.23722292
1.1222893 0.79772615 0.19743563
1.0874954 0.77471006 0.12433506
0.95275915 1.011585 0.096928239
1.0872375 0.77595741 0.058085993
0.94474578 1.0041296 0.028638972
1.1324481 0.80941796 -0.0082602464
0.93856937 0.99861228 -0.038758948
1.1281683 0.80665654 -0.076567866
1.1211503 0.8019343 -0.14463587
0.94499832 1.0082699 -0.17555398
1.1134187 0.79581672 -0.212602
1.0038587 1.0725709 -0.26062164
1.1307114 0.80787861 -0.2870276
1.0122945 1.0834779 -0.33878711
1.1324433 0.80792236 -0.36028171
0.99800098 1.0700495 -0.41156808
1.1631032 0.82795966 -0.44686669
1.1958119 0.84873015 -0.54098099
1.192872 0.84382904 -0.62444395
1.1363053 0.7883932 0.41518998
1.1637757 0.81106871 0.34973544
1.1719522 0.81980991 0.27800873
0.96754712 1.0133208 0.23722292
1.1401281 0.79992139 0.19970664
0.96103466 1.0072039 0.16600238
1.09793 0.77203178 0.12498409
0.95619458 1.0028319 0.096649908
1.0780936 0.75949031 0.057347428
0.95295787 1.0004858 0.028701276
1.1422957 0.80591297 -0.0082958508
0.94399005 0.99211031 -0.038730677
1.1306493 0.79799181 -0.076402493
1.1268622 0.79561359 -0.14474022
0.9470703 0.99813467 -0.17479783
1.1198957 0.79010928 -0.21290901
0.98942697 1.0442342 -0.25520658
1.14285 0.80600536 -0.28884807
1.008875 1.0666224 -0.335446
1.1445028 0.80597508 -0.36253816
0.99397373 1.0527067 -0.4072358
1.1619148 0.81641805 -0.44447702
1.1925447 0.83545542 -0.53717369
1.1761626 0.82122743 -0.61304754
1.1702819 0.79718095 0.50393659
1.1355896 0.77761811 0.41317728
1.158331 0.79675943 0.34662348
1.1809994 0.81539214 0.27896276
0.98059905 1.0144541 0.23889233
1.1474563 0.79460126 0.20013244
0.97478521 1.0091442 0.16730481
1.1018283 0.76471275 0.12489136
0.9623298 0.99694598 0.096649908
1.0851942 0.75457203 0.057477765
0.95491493 0.99030149 0.028576666
1.1537842 0.80346042 -0.0083433231
0.94659239 0.98269981 -0.038589325
1.1355244 0.79103923 -0.076402493
1.1325388 0.78925294 -0.14484458
1.1279662 0.78548157 -0.21352303
0.97604924 1.017537 -0.25014088
1.1493816 0.80009681 -0.28925261
1.0052872 1.0498501 -0.33210492
1.1518112 0.80059493 -0.36329031
0.99176711 1.0375417 -0.40371579
1.169255 0.81090492 -0.44537315
1.201507 0.83079028 -0.53890431
1.1879939 0.81869125 -0.61658436
1.175936 0.80645263 -0.69669068
1.2423152 0.84783721 -0.83233792
1.2324346 0.83605909 -0.92662096
1.1743693 0.78945965 0.50360131
1.1403396 0.77063566 0.41317728
1.1623948 0.78909177 0.34638411
1.1851691 0.80757755 0.27877197
0.97439253 0.99573368 0.23588739
1.1776448 0.80486047 0.20453253
0.97123951 0.99320489 0.16564716
1.1155359 0.76412719 0.12591127
0.96842885 0.99102247 0.096649908
1.0856851 0.74507266 0.057260539
0.95468783 0.97798479 0.028389756
1.1644611 0.80033064 -0.008384862
0.95748943 0.98188275 -0.03878722
1.1420023 0.78518832 -0.076512739
1.1406379 0.7845434 -0.145262
0.9523316 0.97932547 -0.17353757
1.1400938 0.78358305 -0.21490456
1.1647627 0.80023867 -0.29188219
0.9974606 1.0289625 -0.32742739
1.1582985 0.7946077 -0.36379176
0.99342871 1.0265944 -0.40182042
1.173421 0.80317616 -0.44507444
1.2042571 0.82181579 -0.53786594
1.1838707 0.80518085 -0.61186862
1.179374 0.79821479 -0.6958127
1.2286255 0.82749045 -0.81974876
1.2114359 0.81100476 -0.90707421
1.1394689 0.75990433 0.41116458
1.1462419 0.76789445 0.34016019
1.0063189 1.0154604 0.31537068
1.1901021 0.80029029 0.27877197
0.98048389 0.98973614 0.23588739
1.2030774 0.8114574 0.20808098
0.96823388 0.97805315 0.16410792
1.1391759 0.77009362 0.12804379
0.96887881 0.97938818 0.096093252
1.0861003 0.73559582 0.057043314
0.95926517 0.97068632 0.028348221
1.1718327 0.79485458 -0.0084026642
0.96349615 0.97598922 -0.03878722
1.1501036 0.78040886 -0.076733239
1.1462531 0.77808839 -0.14536636
1.1473336 0.77823693 -0.21536507
1.1785672 0.79912233 -0.2941072
0.99009889 1.008907 -0.32297257
1.1647556 0.788571 -0.36429319
1.0010563 1.0218548 -0.40236196
1.1838629 0.7997005 -0.4471654
1.2014953 0.80917042 -0.53440475
1.1842078 0.79482681 -0.60951072
1.1842495 0.79096329 -0.6958127
1.230765 0.81799895 -0.81781197
1.2234737 0.8082363 -0.91235715
1.1500735 0.75280207 0.48918396
1.1409098 0.75079238 0.41001448
1.1574116 0.76513022 0.34207526
0.99454856 0.99134248 0.30976981
1.1884468 0.78863078 0.27724549
0.98793471 0.98509377 0.23622128
1.2195703 0.81173879 0.21006811
0.97351396 0.97139239 0.16398951
1.150506 0.76750976 0.12878552
0.97134036 0.96990043 0.09574534
1.1013914 0.73613477 0.057608098
0.96591026 0.96548885 0.028368989
1.1808426 0.79043067 -0.0084323343
0.97087979 0.97147304 -0.038843762
1.1532111 0.77222615 -0.076622985
1.157616 0.77546853 -0.14620119
1.1586565 0.77557969 -0.2165931
1.1964711 0.80058968 -0.29734361
0.9866516 0.99313045 -0.31985423
1.1735969 0.78409833 -0.36554679
0.98968303 0.997922 -0.39532197
1.1895416 0.79295075 -0.44746411
1.1884662 0.78983927 -0.52644408
1.1867626 0.78602242 -0.6083318
1.1875801 0.78269309 -0.69493473
1.1401646 1.1617599 -0.83620518
1.2247863 0.80323428 -0.81054896
1.2049371 0.78541368 -0.89492357
1.1499226 0.74266446 0.48717225
1.1278226 0.7323029 0.40368888
1.152326 0.75164866 0.33920267
0.98182505 0.96672279 0.30395356
1.2096881 0.79207838 0.28106165
0.98201895 0.96725136 0.23338328
0.97379845 0.95982444 0.16304228
1.1818073 0.777955 0.13175251
0.97443241 0.96112007 0.095467009
1.1484216 0.75741529 0.059823796
0.97323906 0.96094888 0.028410524
1.1898425 0.78592598 -0.0084620053
0.98108792 0.96971369 -0.039013386
1.1695902 0.77284205 -0.077394731
1.1648414 0.76999623 -0.14651427
1.1732877 0.7749911 -0.21843514
1.207899 0.79755008 -0.29896179
0.97890049 0.97331047 -0.31539944
1.1880846 0.78327656 -0.3685554
0.99169523 0.98775458 -0.39369735
1.2007632 0.78983259 -0.44985378
1.1932901 0.7825321 -0.52644408
1.1946422 0.780738 -0.60990369
1.191607 0.77490169 -0.69449574
1.1416292 1.149063 -0.8320927
1.2194076 0.78904939 -0.80377018
1.1997359 0.77157575 -0.88752747
1.1393616 0.72597575 0.48080179
1.1460049 0.7341519 0.40857685
1.1503847 0.74036038 0.33728763
0.98703825 0.95999938 0.30373815
1.2128764 0.78357559 0.28068006
0.97592187 0.9495191 0.2305453
0.97824663 0.95244586 0.16280547
1.1974137 0.77773958 0.13295785
0.97745329 0.95233834 0.095188677
1.1555595 0.75198925 0.059954129
0.98126417 0.9570533 0.028472828
1.1946423 0.77861041 -0.0084620053
0.9934566 0.96996039 -0.039267819
1.1793287 0.76892304 -0.077725478
0.95973128 0.93801475 -0.10373227
1.1695441 0.76283443 -0.14651427
1.1838158 0.77155417 -0.21950966
1.2242576 0.79760784 -0.30179363
1.2001716 0.78072274 -0.37081185
1.2079885 0.78400862 -0.4507499
1.2075214 0.78131145 -0.53059745
1.2017287 0.77488804 -0.61108261
1.1049894 1.0951734 -0.70245504
1.1978518 0.76854593 -0.69537371
1.2198012 0.77872747 -0.80086499
1.200146 0.7614705 -0.88435775
1.1421995 0.71796834 0.48013121
1.1480591 0.72557127 0.40771425
1.1516271 0.73120606 0.33633012
0.98798078 0.94918919 0.30223024
1.2044171 0.76767701 0.27762711
0.97888613 0.94078022 0.22987753
0.9790625 0.94160736 0.16197664
1.2071933 0.77360106 0.13351415
0.98184079 0.94493937 0.095049515
1.1803285 0.7578392 0.060996812
0.98855811 0.9524017 0.028514363
1.2027617 0.77342904 -0.0084857419
1.000109 0.96454036 -0.039296091
1.1873835 0.76383311 -0.077945977
0.97694534 0.94318831 -0.10496534
1.1951109 0.76909906 -0.14912313
1.2009947 0.77229279 -0.2218122
1.2340714 0.79325819 -0.30300727
1.219604 0.78275579 -0.37532479
0.9878642 0.96007955 -0.38746968
1.2151874 0.7781257 -0.451646
1.2122927 0.77388752 -0.53059745
1.2111158 0.7704612 -0.61344051
1.1149447 1.0915606 -0.7045126
1.2048224 0.76262319 -0.69669068
1.1385093 1.1181388 -0.81975526
1.2252967 0.77169454 -0.80134922
1.2134322 0.75949788 -0.89069724
1.1545902 0.71591115 0.48348409
1.1484257 0.7159797 0.40627661
1.1593834 0.72618759 0.33728763
0.99520296 0.9444536 0.30266106
1.2124288 0.76236248 0.27839035
0.98034984 0.9306832 0.22887589
0.98410171 0.93489832 0.16185823
1.2169669 0.76937175 0.13407046
0.98039037 0.93202376 0.094353691
1.1976161 0.75860167 0.061648488
0.9980045 0.94976425 0.028618203
1.2083291 0.76657015 -0.0084916754
1.0125222 0.96459103 -0.039550524
1.2114377 0.76883882 -0.079213835
0.99209404 0.94612134 -0.10596722
1.2216375 0.77561122 -0.15183637
1.2190613 0.77337867 -0.22426826
1.2447048 0.78934246 -0.30442321
1.2366523 0.78302586 -0.37908554
1.0027642 0.96266675 -0.39098969
1.2223595 0.7721839 -0.45254213
1.2130489 0.76393467 -0.52886689
1.2134838 0.76154906 -0.61226159
1.1052426 1.0688592 -0.69422472
1.2033823 0.75140917 -0.69317871
1.1434333 1.1092739 -0.81838441
1.2225766 0.75954449 -0.79650718
1.218792 0.75248414 -0.89122552
1.1629798 0.71127099 0.48516053
1.154429 0.70992303 0.40685168
1.1687733 0.72212207 0.33872393
1.0081037 0.94500786 0.30481523
1.2154154 0.75387394 0.27800873
0.98676115 0.9253248 0.22904283
0.9746139 0.91457343 0.15937175
1.2368722 0.77137417 0.13573939
0.98245466 0.92257625 0.094005778
1.2124152 0.7575919 0.062169828
1.0008996 0.94088364 0.028535131
1.2172483 0.76179403 -0.0085213464
1.0111421 0.95150977 -0.039267819
1.2339047 0.77251786 -0.080371454
1.0022351 0.94411802 -0.10642961
1.2525024 0.78446585 -0.15507136
1.2329977 0.77165049 -0.2259568
1.2495247 0.78169024 -0.30442321
1.2553915 0.78414154 -0.38334775
1.0079536 0.95583338 -0.39071891
1.2319343 0.76769745 -0.45433438
1.0017657 0.95229262 -0.46407786
1.2209013 0.75845748 -0.53025138
1.0466157 0.99736464 -0.56715834
1.2290798 0.76086509 -0.61776328
1.0847601 1.0362457 -0.67735267
1.2156203 0.74872315 -0.69756871
1.1482915 1.1003908 -0.81701356
1.223484 0.74974275 -0.79408622
1.2639965 0.76972163 -0.92080975
1.1858767 0.71531367 0.49287212
1.170228 0.70977998 0.41087705
1.1682075 0.71190554 0.33728763
1.0282136 0.95207381 0.30912358
1.2359278 0.75613558 0.28163409
0.9873569 0.91456264 0.22787423
0.97875082 0.90722603 0.15913494
1.2492146 0.76846564 0.13657385
0.98955977 0.91788745 0.094144948
1.2323495 0.75957412 0.06295184
0.99639684 0.9252004 0.02824438
1.2227505 0.75483608 -0.0085272798
1.0147649 0.94324601 -0.039183006
1.2641076 0.7806716 -0.082025185
1.009469 0.939309 -0.10658375
1.264061 0.78094763 -0.1559062
1.2511625 0.77237558 -0.22841285
1.2651321 0.78069437 -0.30705279
1.2708937 0.78302521 -0.38660708
1.0081791 0.94436592 -0.38855276
1.2512562 0.76911956 -0.45971113
1.0117365 0.95002151 -0.46598765
1.2247322 0.7504617 -0.52990526
1.243143 0.75905973 -0.62247902
1.090435 1.0289447 -0.67694116
1.2255669 0.74451554 -0.70064169
1.1485618 1.0872095 -0.81244415
1.2325542 0.74493694 -0.79699141
1.2708793 0.76326287 -0.92239463
1.1836026 0.70799452 0.41403988
1.1725537 0.70472413 0.33728763
1.0434037 0.95431459 0.31192398
0.99658716 0.91181493 0.22870894
0.984299 0.90120345 0.15913494
0.98928893 0.90640712 0.093588285
1.236987 0.75199825 0.06295184
1.0035286 0.92042077 0.028285917
1.2282133 0.74783927 -0.0085332142
1.0153793 0.93226939 -0.038985115
1.0166817 0.93444669 -0.10673789
1.2764726 0.77783453 -0.15684539
1.2617862 0.76828134 -0.22948737
1.2715716 0.77393532 -0.30745733
1.2839471 0.78023976 -0.38911426
1.0090084 0.9335857 -0.38665739
1.2632966 0.76588029 -0.46239948
1.0161567 0.94250643 -0.46535105
1.2325257 0.74487382 -0.5312897
1.053322 0.97937477 -0.56423676
1.2548667 0.75568706 -0.62601584
1.0987281 1.0240989 -0.67817569
1.2339658 0.73929048 -0.70283669
1.1688554 1.0928991 -0.82203996
1.2416114 0.74004793 -0.7998966
1.2319463 0.72263414 0.50829536
1.1821498 0.69731247 0.41202718
1.1801966 0.69949639 0.33824515
1.0550365 0.95313144 0.31364733
1.0007002 0.90436065 0.22837506
0.98097259 0.88715458 0.1577141
1.2602597 0.7541005 0.1367593
0.99483192 0.90031987 0.093588285
1.246719 0.74747646 0.063212506
1.0054526 0.91088969 0.028182076
1.2319216 0.73977423 -0.0085272798
1.0188591 0.92400706 -0.038900301
1.0231344 0.92886108 -0.10681495
0.98857516 0.8990612 -0.1697568
1.2732537 0.76459438 -0.23071539
1.2813344 0.76914269 -0.30867097
1.2953533 0.77632809 -0.39112002
1.0097437 0.922831 -0.38476202
1.2655149 0.75664526 -0.46150336
1.0331044 0.94649994 -0.47044381
1.2507734 0.74546266 -0.53717369
1.0593115 0.97289324 -0.56423676
1.2618518 0.74938172 -0.62719476
1.0902401 1.003757 -0.66912234
1.2377051 0.73124802 -0.7023977
1.2400943 0.72886884 -0.79602301
1.1822666 0.6876381 0.41058955
1.1819518 0.69077194 0.33752701
1.0819948 0.96549469 0.31989443
1.0032881 0.89557713 0.2277073
0.98639762 0.88111871 0.1577141
1.263148 0.74534154 0.13657385
0.99661869 0.89087456 0.093240373
1.2426821 0.73472804 0.062778056
1.0102777 0.90403646 0.02816131
1.2381583 0.73322046 -0.0085391486
1.0148304 0.90906757 -0.038532786
1.0243608 0.91857195 -0.10635255
0.9925971 0.89165258 -0.16950475
1.2855735 0.76129901 -0.23209693
1.2944572 0.76625472 -0.31069371
1.0153871 0.91661793 -0.38476202
1.2898639 0.76049882 -0.46867236
1.0374868 0.93887091 -0.46980721
1.2593682 0.74015087 -0.53890431
1.0666401 0.96762609 -0.56496716
1.2664262 0.74162501 -0.62719476
1.0781729 0.98049235 -0.6580115
1.2468269 0.72635353 -0.70503169
1.1881253 0.68132383 0.41116458
1.189533 0.68544567 0.33848453
1.0835031 0.95496339 0.31860194
1.0072854 0.88810009 0.22737342
0.98508424 0.86913723 0.15664846
0.9975794 0.88078117 0.09282288
1.0068164 0.88987517 0.027912093
1.2512693 0.73065192 -0.0085984888
1.0129027 0.89619976 -0.038250078
1.0299777 0.91226929 -0.10635255
1.0084381 0.89476293 -0.1712691
1.2919271 0.7543931 -0.23240393
1.2991345 0.75829768 -0.31069371
1.3114737 0.76427299 -0.39312574
1.0238663 0.91293299 -0.38584507
1.295331 0.75304967 -0.46897107
1.0474688 0.93627793 -0.471717
1.2622625 0.7314688 -0.53821206
1.0936613 0.98238492 -0.66377264
1.2473646 0.71645194 -0.70283669
1.2031224 0.68014824 0.41490245
1.1455963 0.65079755 0.32483983
1.0937614 0.95214421 0.31989443
1.0260996 0.89355785 0.23037836
0.98890144 0.86177176 0.15641165
0.99920577 0.87136525 0.092474967
1.0145171 0.88565326 0.027974397
1.2609288 0.72595412 -0.0086340932
1.0168773 0.88865232 -0.038193539
1.0288023 0.90002406 -0.10565895
1.0183856 0.89248139 -0.17202526
1.2973881 0.74694484 -0.23255743
1.0272814 0.90472478 -0.38503277
1.310691 0.751257 -0.47285426
1.0560366 0.93234283 -0.47299019
1.0714629 0.94829416 -0.56131512
1.1071677 0.9823094 -0.66829932
1.186357 0.66109776 0.40771425
1.0803312 0.92886239 0.31429359
1.0270779 0.88338745 0.2293767
0.99417055 0.85568774 0.15641165
1.0068011 0.86717093 0.092683718
1.0123603 0.87288296 0.027766718
1.2705773 0.72116518 -0.0086696986
1.0139871 0.87521154 -0.037882563
1.0252523 0.88587224 -0.10473415
1.0238427 0.88621593 -0.17202526
1.2993686 0.73750681 -0.23209693
1.032087 0.89777267 -0.38476202
1.3235847 0.74789554 -0.47584134
1.059594 0.92397642 -0.47203529
1.0807657 0.94476539 -0.56314117
1.1001507 0.96408463 -0.66048056
1.081544 0.91842359 0.31300107
1.0354848 0.8796221 0.23004447
1.0001588 0.85021466 0.15653005
1.0105833 0.85968423 0.092544548
1.0176972 0.86665475 0.027766718
1.2854505 0.71921468 -0.0087409075
1.014774 0.86508244 -0.037712939
1.0283934 0.87762308 -0.10450294
1.0224748 0.87411541 -0.17089103
1.3055942 0.73048514 -0.23240393
1.0361159 0.89016837 -0.38422048
1.0766776 0.92959887 -0.55802834
1.1101803 0.96089482 -0.66294962
1.0804251 0.90612251 0.31106234
1.0401071 0.8726182 0.22987753
1.0144825 0.85172349 0.15795091
1.0219495 0.85860085 0.093101211
1.0115186 0.85074109 0.0274552
1.290715 0.7117967 -0.008746841
1.0139456 0.85368919 -0.037486773
1.031472 0.86936879 -0.10427174
1.0346408 0.87358505 -0.17202526
1.3117824 0.72341478 -0.23271094
1.0285714 0.86969113 -0.2389614
1.0466964 0.88815391 -0.38611585
1.0766295 0.91581786 -0.47458169
1.0866113 0.92659926 -0.56021953
1.1347601 0.97005475 -0.67406052
1.1085262 0.91816324 0.31752485
1.0499972 0.86999422 0.23087917
1.0319197 0.85562342 0.15984537
1.034108 0.85804719 0.093727447
1.0221032 0.84899026 0.027600575
1.0237763 0.85128629 -0.037656397
1.0383195 0.86429918 -0.10442588
1.0422672 0.86912614 -0.17240334
1.31446 0.71440846 -0.23240393
1.0429575 0.87093693 -0.24105756
1.0288888 0.86071372 -0.30648986
1.0528641 0.8823331 -0.3863866
1.0844061 0.91102391 -0.47553658
1.103669 0.9295094 -0.56606275
1.1080922 0.90639794 0.3158015
1.0667615 0.87290102 0.23338328
1.036382 0.84864646 0.15972696
1.0393534 0.85168588 0.093727447
1.0288392 0.84397095 0.02764211
1.0243454 0.84118223 -0.037486773
1.0420628 0.85664558 -0.10427174
1.0460489 0.86145329 -0.17215128
1.0627147 0.87642384 -0.24437647
1.0446725 0.86307722 -0.30960819
1.0552918 0.87340117 -0.38530356
1.0870574 0.9019317 -0.47426337
1.1107831 0.92391056 -0.56679314
1.1276791 0.94029725 -0.66294962
1.1166714 0.90203625 0.31666318
1.0789994 0.87191635 0.23488575
1.0423418 0.84289575 0.15984537
1.0492125 0.84905773 0.094144948
1.0363289 0.83953023 0.027704414
1.0388041 0.84243661 -0.03782602
1.0465255 0.84960705 -0.10419467
1.0613202 0.86315572 -0.17378962
1.0688357 0.87050849 -0.24455114
1.0559914 0.86158133 -0.3113901
1.0621217 0.868128 -0.38584507
1.0991704 0.90065217 -0.47712806
1.1157118 0.91648662 -0.56642795
1.1176049 0.89151376 0.31537068
1.084329 0.86527938 0.23488575
1.0622365 0.84825695 0.16209504
1.0559611 0.84384942 0.09428411
1.0422413 0.83378017 0.027725182
1.048635 0.83979583 -0.037995644
1.0532746 0.84441704 -0.10434881
1.0712372 0.86035448 -0.17454578
1.071088 0.86146545 -0.24385242
1.0726451 0.86426044 -0.31473121
1.062934 0.85796684 -0.38422048
1.1061499 0.89508349 -0.47776467
1.1242062 0.91196936 -0.5678888
1.1299582 0.89007789 0.31730941
1.0896178 0.85860974 0.23488575
1.0549461 0.8318857 0.16020058
1.0634683 0.83920819 0.094492853
1.0638127 0.84038419 0.02816131
1.0600406 0.83830613 -0.03822181
1.0709434 0.84784013 -0.10558188
1.076496 0.85376531 -0.17454578
1.0786668 0.85671431 -0.24437647
1.077165 0.85705554 -0.31450847
1.0734478 0.85562879 -0.38611585
1.1212488 0.89597273 -0.48190251
1.128461 0.87773192 0.31537068
1.0995346 0.85554069 0.23588739
1.0741329 0.83637786 0.16233185
1.0764664 0.83879864 0.095188677
1.0744674 0.83814543 0.028306684
1.0714672 0.83670789 -0.038447972
1.0839804 0.84739351 -0.10635255
1.0848385 0.8495906 -0.17504989
1.0831283 0.84947193 -0.24420178
1.0808704 0.84922546 -0.31406298
1.0832162 0.85259849 -0.38774046
1.1334232 0.89436114 -0.4847672
1.144668 0.8791185 0.3183865
1.1055453 0.84937865 0.23605435
1.0760958 0.82735044 0.16185823
1.0863369 0.83582771 0.095606171
1.0930551 0.84190822 0.028659739
1.0829138 0.83500075 -0.038674138
1.0899488 0.84133559 -0.10642961
1.0908158 0.84352499 -0.17517591
1.0820924 0.83798707 -0.24280435
1.0906823 0.84616286 -0.31539944
1.096788 0.85243404 -0.39071891
1.1545932 0.89962554 -0.49145144
1.1438158 0.86735809 0.31666318
1.1138783 0.84496272 0.2367221
1.0811521 0.82073206 0.16185823
1.0835013 0.82311177 0.094910353
1.1061584 0.84123755 0.028867418
1.0880169 0.82834041 -0.038674138
1.0927117 0.83281887 -0.10619842
1.0928172 0.83440793 -0.1746718
1.092689 0.83551824 -0.24402711
1.0950798 0.83886176 -0.3151767
1.0989431 0.84334397 -0.38963583
1.1533293 0.88732165 -0.48858678
1.1459894 0.85798246 0.3158015
1.1103611 0.83161056 0.23488575
1.0853732 0.81348729 0.16173983
1.0901276 0.81764519 0.095049515
1.1089008 0.8326335 0.028805114
1.0962751 0.82405138 -0.03878722
1.0978012 0.82609844 -0.10619842
1.1050458 0.8330614 -0.17580603
1.097795 0.82879794 -0.24402711
1.0963187 0.82918632 -0.31406298
1.1071662 0.83891058 -0.39071891
1.159507 0.88080168 -0.48890507
1.1567293 0.85499775 0.31730941
1.1249563 0.83181626 0.23688905
1.089546 0.8062216 0.16162142
1.0903138 0.80737895 0.094632022
1.1107762 0.82343215 0.028722042
1.1037189 0.81909633 -0.03887203
1.102049 0.81875229 -0.10612135
1.1077491 0.82448834 -0.17542796
1.099702 0.81969261 -0.24332838
1.1006048 0.82186055 -0.31384024
1.1161469 0.83498454 -0.39207277
1.1618561 0.87139529 -0.48763189
1.111828 0.81100971 0.45033991
1.1558212 0.84310013 0.39057472
1.1722085 0.85536712 0.32010984
1.1316317 0.82606065 0.23722292
1.0920669 0.79776388 0.16126622
1.092026 0.79831874 0.094353691
1.1158078 0.8166011 0.028722042
1.1119493 0.8146717 -0.038985115
1.10866 0.81315422 -0.10627548
1.1111884 0.81650102 -0.17517591
1.1031247 0.81176239 -0.24297902
1.1181818 0.82434773 -0.31740409
1.1320901 0.83612698 -0.3958635
1.1770853 0.87158358 -0.49176976
1.1136982 0.80195093 0.44909588
1.142967 0.82302678 0.38451728
1.1742655 0.84587544 0.31924817
1.1446781 0.82486582 0.23889233
1.106606 0.79801768 0.16268706
1.0871967 0.78459787 0.093518704
1.1183661 0.80798274 0.028659739
1.1169271 0.80783361 -0.038985115
1.1112058 0.80458212 -0.10604428
1.1161774 0.80966753 -0.17517591
1.1064917 0.80382103 -0.24262966
1.1247953 0.81861848 -0.31784958
1.137977 0.829732 -0.39613429
1.1739926 0.85819083 -0.48826846
1.1224712 0.79785544 0.45065093
1.1440641 0.81320363 0.38320044
1.173067 0.83412719 0.31752485
1.1513247 0.81896967 0.23922622
1.1163354 0.79466772 0.16339749
1.0928029 0.77849096 0.093588285
1.1184188 0.79762232 0.028535131
1.1275576 0.80503088 -0.039183006
1.117744 0.79890823 -0.10619842
1.1267704 0.80684644 -0.17605808
1.1178042 0.80160707 -0.24402711
1.1353393 0.81568319 -0.31940874
1.1492971 0.82723278 -0.39830044
1.18308 0.85374486 -0.48985997
1.1939472 0.86380726 -0.57811439
1.1226776 0.78767788 0.44878489
1.1419247 0.80118185 0.38083011
1.1725678 0.82298672 0.31601691
1.1708529 0.82208806 0.24223115
1.1260651 0.79122829 0.16410792
1.0934789 0.76890194 0.093240373
1.1175691 0.78671628 0.028389756
1.1398298 0.80327958 -0.039437443
1.1275131 0.79548347 -0.10666082
1.1300797 0.79877234 -0.17580603
1.1227016 0.79473323 -0.24402711
1.1474797 0.81377703 -0.3214134
1.1504276 0.81737751 -0.39694658
1.1836634 0.84316951 -0.48795018
1.1893766 0.84943157 -0.57336682
1.1313963 0.78347981 0.45033991
1.1523709 0.79800457 0.38267368
1.1775955 0.81577647 0.31601691
1.1969452 0.82949007 0.24657162
1.1260031 0.78090876 0.16339749
1.0940785 0.75933409 0.092892461
1.11827 0.77699178 0.028285917
1.1537637 0.80254942 -0.039748419
1.1340092 0.78968972 -0.10681495
1.1374004 0.79352605 -0.17618412
1.1315925 0.79064924 -0.24490049
1.1684242 0.81790209 -0.32586819
1.153845 0.80919772 -0.39640504
1.1841618 0.83261919 -0.48604038
1.1938053 0.84158134 -0.57300162
1.186366 0.83850849 -0.65595388
1.1369669 0.77705926 0.45065093
1.1564492 0.7903744 0.38241032
1.1729054 0.80192173 0.31343192
1.1504391 0.7874456 0.16623919
1.1028322 0.75542539 0.093240373
1.1254901 0.7718119 0.028348221
1.1627867 0.79828376 -0.039889771
1.144585 0.78666985 -0.10735442
1.1471504 0.78990787 -0.17694026
1.141286 0.78704488 -0.24594858
1.1694105 0.80794662 -0.32475451
1.1572053 0.80100685 -0.3958635
1.1752298 0.81560874 -0.48031104
1.1951261 0.83158195 -0.57117558
1.1832663 0.82547718 -0.65142727
1.1393497 0.76847398 0.44971791
1.1444818 0.77193546 0.3768796
1.1729469 0.79143268 0.31213942
1.1577176 0.78203928 0.1665944
1.1231493 0.75925946 0.094562441
1.1318606 0.76601219 0.028389756
1.1742834 0.79561955 -0.040115938
1.1510406 0.78075135 -0.10750856
1.1552575 0.78508455 -0.17744437
1.1526057 0.78445929 -0.24734601
1.181595 0.80569899 -0.32675916
1.1644831 0.79552037 -0.39667583
1.1770836 0.80623949 -0.47903785
1.1948342 0.82054412 -0.56861919
1.1823037 0.81406635 -0.64813513
1.1424612 0.76041538 0.44909588
1.1459844 0.76276046 0.37582612
1.1631502 0.77447885 0.3082619
1.2029792 0.80190825 0.1723962
1.1427244 0.76231855 0.095814921
1.1523364 0.76960289 0.028784346
1.1841289 0.79173291 -0.040285561
1.1591237 0.77589244 -0.10781682
1.1617007 0.77908635 -0.17769642
1.1802837 0.79274404 -0.25223702
1.1913693 0.80169928 -0.32809559
1.1709387 0.78943652 -0.39721736
1.1804377 0.79794008 -0.47840124
1.1913698 0.80745214 -0.56460196
1.1872765 0.80679655 -0.64813513
1.1979206 0.81678313 -0.7448166
1.2649767 0.86606658 -0.88867706
1.1558439 0.75913018 0.45251697
1.1482241 0.75412571 0.37503603
1.1580869 0.76089269 0.30567691
1.1565461 0.76132619 0.096580327
1.1620456 0.76581877 0.028908955
1.1931365 0.7872048 -0.040426914
1.170518 0.77316165 -0.10843336
1.1705956 0.77468103 -0.17832655
1.1744562 0.77841544 -0.2499662
1.2019509 0.79814911 -0.32965478
1.1757606 0.78223693 -0.39721736
1.1829456 0.78910381 -0.47744635
1.1839209 0.7918461 -0.55875874
1.2035589 0.80711061 -0.65430784
1.193316 0.80296195 -0.7388764
1.2523456 0.84617949 -0.87613928
1.1564921 0.74943948 0.45096195
1.1471627 0.74339378 0.37319246
1.1602756 0.75217885 0.30503064
1.2285547 0.79735649 0.17464587
1.1754179 0.76345289 0.097763225
1.1650465 0.75758415 0.028867418
1.2004573 0.78150511 -0.040511724
1.181087 0.76977569 -0.10897283
1.186125 0.77453488 -0.17996489
1.1940433 0.78089505 -0.25311044
1.2125336 0.7944991 -0.33121395
1.1877807 0.77976251 -0.39965427
1.1838061 0.7792244 -0.47585487
1.1887573 0.78456682 -0.55875874
1.1993679 0.79367495 -0.64936966
1.2048895 0.80005312 -0.74298888
1.2272819 0.81832123 -0.85507584
1.1554637 0.73874563 0.44878489
1.1533281 0.73738021 0.37371919
1.1615784 0.74294072 0.30416897
1.1960386 0.76645285 0.099085294
1.1772463 0.75528014 0.029054331
1.2085942 0.77628535 -0.040624805
1.2000443 0.77168161 -0.11028297
1.2108696 0.78013718 -0.18298951
1.2161863 0.78476477 -0.25677869
1.2304847 0.79551274 -0.33477777
1.1917349 0.77193642 -0.39938352
1.1845899 0.7693643 -0.47426337
1.1966693 0.77929002 -0.56021953
1.1950576 0.78032136 -0.64443147
1.2097759 0.79264504 -0.74298888
1.2185478 0.80174035 -0.84554714
1.1599748 0.73164195 0.44878489
1.1602787 0.73183358 0.37450927
1.1644634 0.73475724 0.30373815
1.2108374 0.76549655 0.09992028
1.191996 0.75445884 0.029303545
1.2141789 0.76938999 -0.040653076
1.2258041 0.77765638 -0.11220965
1.2273545 0.78014296 -0.18475387
1.228454 0.7820465 -0.25835082
1.2369865 0.78899616 -0.33522326
1.2045605 0.76979333 -0.40209118
1.19727 0.76719594 -0.47744635
1.21161 0.77847451 -0.56496716
1.2036541 0.77544194 -0.64648908
1.2086407 0.78134382 -0.73933333
1.2016748 0.78011584 -0.83050185
1.1620213 0.7230044 0.44785187
1.1672045 0.72622937 0.37529939
1.1681209 0.72708237 0.30352274
1.2315942 0.76808256 0.10124235
1.2110196 0.75613225 0.0296566
1.218877 0.76192546 -0.040653076
1.2449204 0.77911216 -0.11351979
1.249768 0.78366458 -0.18740042
1.2624134 0.79282224 -0.26446459
1.2475803 0.78502566 -0.33678246
1.2239189 0.77162886 -0.40696502
1.2051601 0.76186144 -0.47871953
1.2171501 0.77152395 -0.56533235
1.2122353 0.7704863 -0.64854664
1.2104124 0.77199978 -0.73750556
1.1976966 0.76712835 -0.82448369
1.1664357 0.71586078 0.44785187
1.1658832 0.71552169 0.37345582
1.1733924 0.72041214 0.30373815
1.2405323 0.76312464 0.10159026
1.2275544 0.7560274 0.02994735
1.2294852 0.75810468 -0.040850971
1.2708873 0.7845521 -0.11544646
1.2638334 0.78172165 -0.1887867
1.254699 0.77728325 -0.2618444
1.2598282 0.78198302 -0.33878711
1.2384399 0.77020514 -0.41021425
1.2122253 0.75595725 -0.47967443
1.2273864 0.76749611 -0.5678888
1.2092184 0.75819206 -0.64443147
1.2173852 0.76597935 -0.7388764
1.19653 0.75606781 -0.82047158
1.1773107 0.71262735 0.45033991
1.1735528 0.71035266 0.37450927
1.1811318 0.71522206 0.30459982
1.2486029 0.75756836 0.10186858
1.2261888 0.74484766 0.029801976
1.2366757 0.7521047 -0.040935785
1.2813092 0.7817021 -0.19067708
1.265326 0.77316368 -0.26306716
1.2745798 0.78034651 -0.34145999
1.2373986 0.75906819 -0.40831888
1.2103813 0.74453145 -0.47712806
1.2344495 0.76141673 -0.56898439
1.214623 0.75123757 -0.64484298
1.2175276 0.7556808 -0.73613471
1.1923362 0.74322003 -0.81445348
1.1857414 0.70782584 0.45189497
1.1778893 0.70313853 0.37450927
1.187175 0.70896268 0.30503064
1.2566519 0.75194168 0.10214692
1.2324513 0.73833746 0.029843511
1.2652698 0.75889885 -0.04172736
1.2767928 0.76945102 -0.26446459
1.2860202 0.77654248 -0.3432419
1.2758017 0.77189231 -0.41942036
1.2392416 0.75184232 -0.48667699
1.2454607 0.75769866 -0.57190597
1.2230998 0.74614388 -0.64690059
1.2153139 0.74401605 -0.73202223
1.2012961 0.73860884 -0.81746256
1.1925193 0.70198333 0.45282799
1.1821815 0.69589788 0.37450927
1.1973929 0.70513362 0.30653858
1.2629603 0.74523079 0.10228608
1.2464272 0.73635525 0.030071959
1.2724836 0.7526477 -0.04181217
1.287415 0.76512355 -0.26568735
1.3050002 0.77711648 -0.34702846
1.2887807 0.76898217 -0.42212805
1.2413911 0.74276412 -0.48572209
1.2564726 0.75387406 -0.57482761
1.2292169 0.73956478 -0.64772362
1.2274708 0.74114269 -0.73659164
1.2183814 0.73885018 -0.82598823
1.1959822 0.69417584 0.45251697
1.1822575 0.68620974 0.37319246
1.2101418 0.70267683 0.30869272
1.258697 0.73322266 0.03025887
1.294634 0.75870323 -0.26621139
1.3117278 0.77179968 -0.42808497
1.2524569 0.73898703 -0.48826846
1.2722913 0.75278693 -0.57994044
1.232164 0.73107839 -0.64690059
1.2442235 0.74087846 -0.74390274
1.2251195 0.7326926 -0.82749277
1.2018689 0.68776846 0.45313901
1.1889577 0.68038005 0.37398255
1.2727089 0.73096287 0.030487318
1.30097 0.75173044 -0.26656073
1.2291079 0.71507967 -0.47744635
1.2760823 0.744497 -0.57957524
1.2271868 0.71798128 -0.64196241
1.2387744 0.72737509 -0.73796248
1.2340633 0.72779852 -0.83050185
1.2118608 0.68364984 0.45531604
1.1796665 0.665488 0.36976865
1.2815201 0.72560292 0.030591156
1.3064135 0.74422109 -0.26673543
1.2424444 0.71931475 -0.73750556
2.2199047 -0.93243551 -0.25264317
2.2399282 -0.94176608 -0.3774645
2.2113979 -0.94486672 -0.25233012
2.2104855 -0.94538945 -0.37347344
2.2833309 -0.97701573 -0.5129683
2.3481293 -1.0134816 -0.94351512
2.1706138 -0.950899 0.33979934
2.2333562 -0.97096062 -0.13444854
2.206471 -0.9588142 -0.25243446
2.2100799 -0.96129978 -0.37439445
2.2683132 -0.98709989 -0.51094556
2.2867877 -0.99703872 -0.64610016
2.3268085 -1.0173889 -0.79486114
2.3401482 -1.0271163 -0.94282293
2.2227905 -0.98262745 -0.13417292
2.2014558 -0.97273678 -0.25253883
2.2041399 -0.97484249 -0.37439445
2.2622139 -1.0009993 -0.51094556
2.280627 -1.0110514 -0.64610016
2.3187778 -1.0308714 -0.79426372
2.3355155 -1.0422205 -0.94351512
2.1742902 -0.98814696 0.46423832
2.1768162 -0.9856301 0.34263811
2.2326503 -1.0038759 -0.01452664
2.2121656 -0.99420118 -0.13389729
2.1990747 -0.98785645 -0.25295624
2.1963143 -0.98753804 -0.37408742
2.2524567 -1.0132542 -0.51013643
2.2761455 -1.0258216 -0.64660162
2.3089304 -1.0435076 -0.79306889
2.328222 -1.0561438 -0.943169
2.1815536 -1.0076438 0.46710044
2.1662314 -0.99689913 0.34192842
2.2264004 -1.0194138 0.10648375
2.2219009 -1.0154779 -0.01449697
2.203299 -1.0065114 -0.13373192
2.1993048 -1.0042228 -0.25368673
2.1947072 -1.0030495 -0.37485495
2.2426345 -1.025427 -0.50932735
2.2794895 -1.0442033 -0.64935952
2.3033512 -1.0580536 -0.79336762
2.3225501 -1.0708023 -0.94351512
2.1513371 -1.0097495 0.4619486
2.1582804 -1.0093335 0.34164456
2.2126322 -1.031929 0.22734493
2.2155745 -1.0309482 0.10626652
2.2092798 -1.0261434 -0.014455431
2.1925535 -1.0179094 -0.1334563
2.1967101 -1.0193731 -0.25410414
2.1885114 -1.0164971 -0.37485495
2.2345243 -1.0383428 -0.50892282
2.2677739 -1.0557189 -0.64785522
2.3037338 -1.0753963 -0.79575723
2.3082898 -1.0814508 -0.94040006
2.1433287 -1.0220858 0.46156698
2.1538348 -1.0234071 0.34192842
2.221555 -1.0527345 0.22892115
2.2083037 -1.0440962 0.10622308
2.1993246 -1.0379728 -0.014431695
2.1826544 -1.0296395 -0.1332358
2.1931126 -1.0341051 -0.25441721
2.1822331 -1.0299064 -0.37485495
2.2263398 -1.0511978 -0.50851822
2.2665038 -1.0720975 -0.64935952
2.2962298 -1.0891025 -0.79545856
2.3049991 -1.0972068 -0.94178456
2.1379004 -1.0356457 0.46175778
2.1501892 -1.0378944 0.34235424
2.215951 -1.0667777 0.22901386
2.1982534 -1.0558962 0.1060493
2.1920125 -1.0510157 -0.01442576
2.1753953 -1.0425811 -0.13318068
2.18852 -1.0484017 -0.25462592
2.1812186 -1.0458403 -0.37577596
2.218082 -1.0639914 -0.50811368
2.2642457 -1.0880808 -0.65061307
2.2895038 -1.1031713 -0.79545856
2.1341479 -1.0500442 0.46233022
2.1491129 -1.0536828 0.34320587
2.2057858 -1.0786049 0.22864299
2.1881418 -1.0676122 0.10587552
2.1846235 -1.064008 -0.014419827
2.1707525 -1.0567836 -0.13329093
2.1900945 -1.065727 -0.25556511
2.1694303 -1.0566082 -0.37485495
2.2097509 -1.0767233 -0.50770915
2.2592666 -1.1028028 -0.65111452
2.1250305 -1.0618031 0.46175778
2.1461518 -1.0686145 0.3437736
2.1902082 -1.0876904 0.22771581
2.1806545 -1.0805746 0.10583208
2.1771574 -1.0769492 -0.014413892
2.1776531 -1.0767214 -0.1341178
2.1888638 -1.081789 -0.25619125
2.1629062 -1.0698997 -0.37485495
2.2031026 -1.0902618 -0.50770915
2.2533247 -1.1170746 -0.65136522
2.1140983 -1.0726013 0.46080375
2.1395545 -1.0817629 0.3437736
2.1790478 -1.0988671 0.22725222
2.1748757 -1.0943836 0.10587552
2.171402 -1.0907366 -0.014419827
2.1834979 -1.0963354 -0.13488953
2.1812959 -1.0947531 -0.25608689
2.1624818 -1.0862558 -0.37592947
2.205122 -1.1081568 -0.50973189
2.1557729 -1.106624 0.347464
2.1766956 -1.1144856 0.22771581
2.169899 -1.1086169 0.10596241
2.1682317 -1.1058569 -0.014443562
2.1989686 -1.1210499 -0.13626765
2.1771958 -1.1094713 -0.25639996
2.1522548 -1.0977082 -0.37531546
2.1594763 -1.1253201 0.34916726
2.1706998 -1.1282798 0.22780852
2.1657164 -1.1232903 0.10609274
2.1658454 -1.121439 -0.014473233
2.2053499 -1.1414057 -0.13709451
2.1694641 -1.1223525 -0.25629559
2.1507437 -1.1136197 -0.37623647
2.1245303 -1.1237388 0.34462523
2.1734231 -1.1466886 0.22882843
2.1614354 -1.137954 0.10622308
2.1642346 -1.1374987 -0.014508838
2.2142153 -1.1632748 -0.13808675
2.158134 -1.1333309 -0.25577381
2.1438704 -1.1267954 -0.37623647
2.1751239 -1.1647031 0.22975561
2.1517689 -1.1497823 0.10609274
2.1625082 -1.1535808 -0.014544442
2.207917 -1.1773089 -0.13814187
2.1502616 -1.146084 -0.25566947
2.1395316 -1.141324 -0.376697
2.1548133 -1.1708965 0.22836484
2.1473081 -1.1643924 0.10622308
2.165942 -1.1725407 -0.014615651
2.180454 -1.1799048 -0.13687402
2.143189 -1.1592561 -0.25566947
2.1571796 -1.1893845 0.22938474
2.1436245 -1.1794726 0.10639686
2.1613359 -1.1872529 -0.014633453
2.1661716 -1.189417 -0.13643302
2.1398363 -1.1945513 0.10657064
2.1575043 -1.2024395 -0.01465719
2.1562157 -1.2012283 -0.13626765
2.1359437 -1.2096279 0.10674442
2.1518266 -1.2166394 -0.014669058
2.1470661 -1.2134533 -0.13615739
2.1319466 -1.2247016 0.1069182
2.1460559 -1.2308149 -0.014680927
2.1321609 -1.2422864 0.10730921
2.2036641 -0.92787707 -0.067623198
2.2211854 -0.93160558 -0.30599073
2.2397721 -0.93756294 -0.43075937
2.2275949 -0.95270687 -0.18727297
2.2117777 -0.94365978 -0.30548662
2.2267299 -0.94820213 -0.42936194
2.2189643 -0.96516418 -0.18704177
2.2013958 -0.95523882 -0.30485648
2.2163522 -0.95989072 -0.42848852
2.3053148 -0.99603176 -0.5737775
2.1646328 -0.96324742 0.40115884
2.1885026 -0.97295415 0.28559038
2.2291682 -0.98730773 -0.068951912
2.2093532 -0.97714823 -0.1867335
2.1945853 -0.96832788 -0.30473047
2.2113218 -0.97386873 -0.42866322
2.2875571 -1.0050603 -0.5708819
2.31967 -1.0167552 -0.71239185
2.3481281 -1.025811 -0.86035836
2.3472102 -1.0219967 -1.0043049
2.1613767 -0.97773033 0.40165964
2.1680138 -0.97982121 0.28369594
2.2194223 -0.99932545 -0.068838835
2.203316 -0.99068618 -0.1867335
2.191318 -0.98299342 -0.30510855
2.2062032 -0.98782122 -0.4288379
2.2751162 -1.0162944 -0.56932271
2.3116288 -1.0301856 -0.71185035
2.3374577 -1.0382752 -0.85876685
2.3315315 -1.0322342 -1.0002877
2.1553369 -0.99097389 0.40165964
2.1628633 -0.9935199 0.28381434
2.231303 -1.0226009 0.050985262
2.1996148 -1.006685 -0.068414778
2.2017298 -1.006259 -0.18711883
2.1897583 -0.99847847 -0.30573866
2.1992044 -1.0009317 -0.42866322
2.2617364 -1.0270106 -0.56754076
2.3026338 -1.0431584 -0.71103799
2.3275871 -1.0510375 -0.85749364
2.322607 -1.0453745 -0.99919206
2.1492157 -1.0041802 0.40165964
2.1567264 -1.0067723 0.28381434
2.2339962 -1.0418926 0.17193803
2.2240801 -1.0358506 0.050964493
2.1979282 -1.0222704 -0.06855613
2.2000353 -1.0218496 -0.18750417
2.1853907 -1.01273 -0.30599073
2.1992769 -1.0173006 -0.42988598
2.2527368 -1.0396434 -0.56687254
2.2953153 -1.0568649 -0.71076727
2.319371 -1.0645087 -0.85685706
2.312763 -1.058057 -0.99773127
2.1439044 -1.0177714 0.40182659
2.1594799 -1.024242 0.28499839
2.2203493 -1.0521631 0.17138137
2.2023196 -1.0422076 0.050611436
2.1907105 -1.0353103 -0.068527855
2.1991339 -1.0378827 -0.18796657
2.181828 -1.0273881 -0.3063688
2.2117066 -1.0395716 -0.43355423
2.2454326 -1.0530324 -0.56664979
2.2870433 -1.0701128 -0.7102257
2.3093591 -1.0771172 -0.85558385
2.3172014 -1.07733 -1.0024788
2.1367311 -1.0304787 0.40165964
2.170151 -1.0456625 0.28724805
2.2030654 -1.0605745 0.17054638
2.2003884 -1.0578672 0.050715279
2.1843169 -1.0487328 -0.068527855
2.1990173 -1.0543742 -0.18850604
2.1772728 -1.0416124 -0.30662084
2.1910701 -1.046334 -0.43075937
2.2415693 -1.0680484 -0.56731802
2.2804344 -1.0841256 -0.7102257
2.3001366 -1.0900489 -0.85462898
2.1401079 -1.0483412 0.403496
2.1788559 -1.0663792 0.28926092
2.1866584 -1.069252 0.16978098
2.1938562 -1.0713485 0.050715279
2.1778407 -1.0621157 -0.068527855
2.1969881 -1.0700302 -0.18889138
2.1735172 -1.0562531 -0.30699894
2.1846087 -1.0597584 -0.43075937
2.2340961 -1.0813575 -0.56709528
2.270272 -1.0964231 -0.70914263
2.2916965 -1.1033194 -0.8539924
2.1380489 -1.0636487 0.4043307
2.1651583 -1.0761926 0.28831369
2.1729088 -1.0790993 0.16922432
2.1890326 -1.0856781 0.050756812
2.1748657 -1.0772334 -0.06864094
2.2011054 -1.0887952 -0.18981618
2.1661057 -1.0691307 -0.3068729
2.2080951 -1.087939 -0.43669847
2.2344179 -1.0984862 -0.56887722
2.1834052 -1.102977 0.41418022
2.2356355 -1.1283827 0.29861483
2.1965313 -1.1076839 0.17159012
2.179651 -1.0977402 0.05069451
2.1816101 -1.0972953 -0.069064997
2.2015107 -1.1058607 -0.19043271
2.1603918 -1.082846 -0.30699894
2.2137058 -1.1076353 -0.43914399
2.1818602 -1.1190532 0.41518185
2.2401578 -1.147966 0.30015409
