# .PCD v0.7 - Point Cloud Data file format
VERSION 0.7
FIELDS x y z
SIZE 4 4 4
TYPE F F F
COUNT 1 1 1
WIDTH 1527
HEIGHT 1
VIEWPOINT 0 0 0 1 0 0 0
POINTS 1527
DATA ascii
8.5457277 -7.8448768 0.24097025
8.5799398 -7.8680086 -0.32923904
5.3008213 -7.7862115 6.4037738
5.3393431 -7.7609911 5.716363
5.396872 -7.7746687 5.1002264
8.5755701 -7.9893312 5.9050465
8.5843544 -8.0003147 5.1852765
5.453434 -7.6973529 3.3572304
5.4770474 -7.6907754 2.8344479
8.5816603 -8.0006027 3.2030816
5.4759421 -7.655241 2.3205581
5.4513273 -7.5927896 1.8168833
5.4349365 -7.5476928 1.3336486
5.5033727 -7.6258793 0.87572306
5.4929314 -7.5974312 0.40768808
5.4489436 -7.5227551 -0.51282281
5.2271194 -7.7801495 6.3722892
5.2613678 -7.7490478 5.6836801
5.3346372 -7.7865763 5.0864692
8.4646673 -7.9835877 5.8623023
8.4765577 -7.9975982 5.1497083
5.4109602 -7.737618 3.3602479
5.4005628 -7.6827092 2.8192089
5.394146 -7.6395221 2.3057165
5.4046364 -7.6260958 1.8168833
5.3965516 -7.5921946 1.3356358
5.407372 -7.5905724 0.86784202
5.4055853 -7.5740685 0.40464693
5.4048419 -7.5618567 -0.055157319
5.3864217 -7.5333052 -0.51127928
5.1381559 -7.7500424 6.3216887
5.1827893 -7.7350206 5.64996
5.2704878 -7.7950969 5.0708141
8.3438263 -7.9669189 5.8123584
8.3611822 -7.9862814 5.1092896
5.3396711 -7.6960287 2.8120208
5.3294044 -7.646986 2.2980564
5.3374858 -7.6301575 1.8100142
5.3413372 -7.6130095 1.3335067
5.3417954 -7.5967302 0.86478227
5.3313918 -7.5678906 0.40256158
5.3231764 -7.5450354 -0.05479534
5.3216724 -7.5401096 -0.50951529
5.2790427 -7.4769378 -0.96037799
5.0719438 -7.7530494 6.2986374
5.1121264 -7.7317324 5.6245399
5.2093668 -7.807518 5.0580053
8.2479105 -7.9726558 5.7795129
8.2817745 -8.0081863 5.0906973
5.2495985 -7.6662178 2.7893062
5.2543206 -7.6387448 2.2858479
5.2637968 -7.6239896 1.8008554
5.2753634 -7.6179709 1.3286808
5.255342 -7.5721049 0.85829204
5.2557683 -7.5586281 0.40034589
5.2619228 -7.5562196 -0.054641053
5.2496243 -7.5357533 -0.50703472
5.2222614 -7.4936857 -0.95839524
4.9942284 -7.7374716 6.2609682
5.0421672 -7.7285862 5.5996389
8.1433048 -7.9687729 5.7403679
5.1820822 -7.6681294 2.7783799
5.1795392 -7.6298723 2.2736394
5.1981239 -7.6285629 1.7943679
5.1972427 -7.6044307 1.3207322
5.184586 -7.5688858 0.85430515
5.1906352 -7.5635514 0.39891219
5.189405 -7.5504551 -0.054368086
5.1817904 -7.5365572 -0.50493997
5.1615291 -7.504283 -0.95568204
4.9284458 -7.7393703 6.2379169
4.9654989 -7.7140903 5.566956
5.0417085 -7.7608628 4.9873204
8.047307 -7.9720793 5.7070718
5.1115522 -7.664721 2.7657287
5.1147928 -7.6348906 2.2657399
5.1238298 -7.6195855 1.7848275
5.1349864 -7.6131992 1.316758
5.1174145 -7.5700345 0.8508746
5.1222792 -7.5629973 0.39721784
5.1143503 -7.5399485 -0.054065447
5.1147056 -7.5376401 -0.50290036
5.096395 -7.5078349 -0.95213395
4.7672739 -7.6805921 6.856627
4.861949 -7.7393537 6.2137408
4.897449 -7.7119374 5.5436115
7.9332905 -7.9561696 5.660728
5.0338888 -7.6495361 2.7490523
5.0512514 -7.6410222 2.2583191
5.0509276 -7.6116209 1.7756686
5.0530739 -7.5918255 1.3076739
5.0526347 -7.5739579 0.84781486
5.0546813 -7.5627217 0.39556694
5.0429587 -7.533793 -0.053798415
5.0328035 -7.5157838 -0.49937242
5.0175748 -7.4902139 -0.94597703
4.7175608 -7.7056217 6.8530011
4.7934604 -7.7352986 6.1867542
4.8300667 -7.7099648 5.5207853
7.8429618 -7.9627051 5.6310315
4.9675589 -7.6505575 2.7384136
4.9830537 -7.6393437 2.2487438
4.9826193 -7.6096201 1.7680362
4.9786825 -7.5804911 1.3004351
4.9879999 -7.5773726 0.84475517
4.9900303 -7.566072 0.39413324
4.9668756 -7.519537 -0.053477973
4.9557672 -7.4998727 -0.49628544
4.9430027 -7.4777179 -0.94055057
4.6677203 -7.7303309 6.8493748
4.7277927 -7.7349291 6.1631403
4.7588496 -7.700912 5.4932904
7.7366614 -7.9517908 5.5896368
4.892107 -7.6365376 2.7225997
4.9045591 -7.6207881 2.234381
4.9107976 -7.6012969 1.7590683
4.9073129 -7.5726843 1.293906
4.9088707 -7.5577345 0.83919209
4.9255295 -7.5689149 0.39269957
4.9113612 -7.5356297 -0.053377096
4.8883872 -7.4975195 -0.49413559
4.8834443 -7.4870815 -0.93794173
4.5831046 -7.6965308 6.7943816
4.6606035 -7.7312136 6.1372781
4.6816969 -7.6810565 5.4585323
7.6316667 -7.9324665 6.2658763
7.6289353 -7.937942 5.5468922
4.8216205 -7.6291685 2.7093735
4.8379297 -7.6195912 2.2252846
4.844543 -7.6006579 1.7520083
4.839427 -7.569293 1.2882285
4.8323207 -7.5407662 0.83399987
4.8471484 -7.5493941 0.3901363
4.8466415 -7.5370264 -0.053175334
4.8179827 -7.4895849 -0.49165499
4.8169603 -7.4851246 -0.93397623
4.5285316 -7.7121406 6.783504
4.5872993 -7.7163029 6.102982
4.5600414 -7.5858092 5.3708596
7.5654888 -7.9608755 6.2515297
7.5358152 -7.9379702 5.5144963
4.7574902 -7.6309757 2.6995974
4.7689242 -7.6137505 2.2149911
4.7727337 -7.5903525 1.7428495
4.7717681 -7.5653548 1.2825509
4.7684021 -7.5425019 0.83094019
4.7761431 -7.5401702 0.38813782
4.7826262 -7.5387578 -0.05297951
4.7574911 -7.4962449 -0.49016663
4.7512183 -7.4834743 -0.9301151
4.6916189 -7.3953047 -1.3604994
4.4671535 -7.7156491 6.7623529
4.5206285 -7.7114868 6.0771198
7.4344168 -7.9197059 6.1832614
7.4313765 -7.9247785 5.4735518
4.6900072 -7.6265736 2.6878088
4.6914973 -7.5933094 2.2006283
4.7017522 -7.5802875 1.7338815
4.7001572 -7.5541487 1.2757379
4.7093868 -7.5513415 0.82871497
4.704905 -7.5295134 0.38609591
4.7113461 -7.5281215 -0.052700609
4.6923308 -7.4948282 -0.48818216
4.6788163 -7.4703426 -0.92489737
4.6456294 -7.4231148 -1.3603458
4.4019532 -7.7117758 6.7351584
4.4517064 -7.7018485 6.047884
7.3401833 -7.9161043 6.1451693
7.3401299 -7.924365 5.4420557
4.6123281 -7.604435 2.6699822
4.6261225 -7.5912762 2.191771
4.6367092 -7.5788498 1.7270123
4.6361132 -7.5541615 1.2709121
4.633749 -7.5326033 0.82352275
4.6418419 -7.5310249 0.38470566
4.6345992 -7.5075355 -0.052356433
4.6305156 -7.497993 -0.48652843
4.610414 -7.4625287 -0.9204101
4.6072617 -7.4632521 -1.3624949
4.339314 -7.7115607 6.7115898
4.3789797 -7.6844711 6.0130258
7.2398181 -7.9045963 6.1016355
7.2431417 -7.916543 5.4060602
4.551815 -7.6095777 2.6619313
4.5604506 -7.5878954 2.1826746
4.5749049 -7.581943 1.7212881
4.5660958 -7.5435123 1.2643828
4.563684 -7.5217357 0.81925768
4.5670009 -7.5124125 0.3823162
4.5572429 -7.4845848 -0.052000385
4.5568924 -7.4810691 -0.48360682
4.5381441 -7.4473639 -0.915088
4.5228386 -7.428081 -1.3509822
4.2795486 -7.715745 6.6922517
4.3183804 -7.6874018 5.994472
7.1503677 -7.9037576 6.0670066
7.1195817 -7.878015 5.3498173
4.4826536 -7.5994163 2.648705
4.5029149 -7.5973597 2.1774082
4.4946647 -7.5533519 1.7085038
4.5050097 -7.5467386 1.2602667
4.5021081 -7.5239639 0.81647617
4.5033531 -7.5111609 0.38083905
4.497333 -7.4892597 -0.051840167
4.4846807 -7.4652371 -0.48079547
4.4785304 -7.4520531 -0.91227043
4.4654756 -7.4362082 -1.3474516
4.2122521 -7.7055054 6.6608267
4.2511005 -7.6775804 5.9663606
4.2571054 -7.6005392 5.2862997
7.0756783 -7.9183211 6.044745
7.0473208 -7.8949022 5.33182
4.4205518 -7.6432319 3.1423113
4.4210124 -7.6011128 2.6397917
4.4194708 -7.561976 2.1594548
4.4243879 -7.5401502 1.699345
4.4259791 -7.5187907 1.2510407
4.4376411 -7.5205755 0.81313831
4.4363337 -7.5033917 0.37905782
4.4411044 -7.499505 -0.051721483
4.4184337 -7.4582524 -0.47859049
4.4124389 -7.4451699 -0.90809619
4.4031482 -7.43541 -1.342386
4.1448655 -7.6940303 6.628798
4.1928196 -7.6831942 5.9506183
4.2070837 -7.6205297 5.2821498
6.9631248 -7.8892627 5.9898334
6.9420471 -7.8736873 5.2886252
4.3707705 -7.6653018 3.1402996
4.360949 -7.6048326 2.6317408
4.3608689 -7.5679197 2.1534703
4.3667326 -7.5476131 1.6949564
4.3549156 -7.5030003 1.2439438
4.36938 -7.5097952 0.80905867
4.3685737 -7.4933586 0.3771897
4.3723135 -7.4877548 -0.051454451
4.3514347 -7.4490123 -0.47627527
4.3511171 -7.4454856 -0.90486121
4.3414974 -7.4349809 -1.3374739
4.0863709 -7.6982055 6.6106682
4.1311049 -7.6818275 5.9298158
4.1520743 -7.6311817 5.2717743
6.8808928 -7.893189 5.9606462
6.8619342 -7.8797665 5.2643285
4.3139606 -7.6747293 3.1332586
4.2887521 -7.5864244 2.6162145
4.2975655 -7.5649877 2.1450918
4.3072076 -7.5512428 1.6898046
4.2969966 -7.5089607 1.2405373
4.303896 -7.5027804 0.80544269
4.3075771 -7.4940376 0.37588632
4.3093233 -7.4849768 -0.051252693
4.292191 -7.4522109 -0.47478691
4.2879725 -7.4418826 -0.90120882
4.2775531 -7.4297943 -1.3317943
4.0246587 -7.6955996 6.5870996
4.0641446 -7.6697636 5.9011421
4.0922446 -7.6324043 5.2551732
6.8000097 -7.8977213 5.9324479
6.7738557 -7.8756814 5.2337322
4.2178783 -7.5690918 2.601263
4.2301936 -7.5539403 2.1345592
4.2391424 -7.5390253 1.6812181
4.2401414 -7.5162182 1.2374147
4.2450356 -7.5065131 0.80303198
4.2482147 -7.4968591 0.3747133
4.2425838 -7.4747519 -0.05100346
4.2375102 -7.4627781 -0.47379467
4.2270012 -7.4412456 -0.89797378
4.2148123 -7.4258232 -1.3264216
3.9653223 -7.6967764 6.5671573
3.992131 -7.6469049 5.8645973
4.0333562 -7.6346927 5.2396102
6.7001901 -7.8790503 5.8874302
6.6912913 -7.8769398 5.2071857
4.1579847 -7.5704846 2.5929246
4.1678114 -7.5508533 2.1264203
4.1780524 -7.5382786 1.6753031
4.1823974 -7.5213308 1.2340082
4.1853218 -7.5080676 0.8004359
4.1845951 -7.491385 0.37314931
4.1761327 -7.4639907 -0.05075423
4.1711569 -7.452045 -0.47147945
4.1593971 -7.4279928 -0.89327782
4.143115 -7.4049783 -1.3181325
3.9032388 -7.6918321 6.5423799
3.9353018 -7.6521354 5.8499794
3.9745936 -7.6365471 5.2240472
6.6327157 -7.897387 5.8706107
6.5917478 -7.8569574 5.167141
4.09413 -7.5638475 2.5819986
4.1107306 -7.5566678 2.1209145
6.4834194 -7.7305765 2.2256896
4.1138377 -7.5310369 1.6680523
4.118566 -7.5147338 1.2287564
4.1228728 -7.5039368 0.79728347
4.1125307 -7.4696603 0.37080327
4.1138372 -7.459702 -0.050552469
4.1123304 -7.4538937 -0.46999109
4.0998044 -7.428124 -0.89025152
4.0804219 -7.3991098 -1.3126063
3.8342423 -7.6721625 6.5055165
3.8822958 -7.6643338 5.8409839
3.9101102 -7.6265569 5.2007022
6.5303149 -7.8730516 5.8226247
6.5035295 -7.8491187 5.1356449
4.0554647 -7.6484413 3.0809538
4.0296125 -7.5550232 2.5704975
4.0482311 -7.5517979 2.1125362
4.0503349 -7.5241561 1.6609924
4.0545034 -7.5067673 1.2233628
4.072011 -7.5203371 0.79635632
4.056138 -7.4754353 0.36984748
4.0450668 -7.4426308 -0.050267633
4.0488696 -7.4465299 -0.46795148
4.0370412 -7.4216881 -0.88649476
4.0292826 -7.4135895 -1.3107643
3.772671 -7.666235 6.4807391
3.8174758 -7.6524906 5.8139968
6.4630089 -7.8815084 6.5134144
3.8509092 -7.6259851 5.1841016
6.4135957 -7.8296075 5.7612815
6.4218779 -7.8480973 5.1090984
3.9560366 -7.6835899 4.1036224
3.9574206 -7.5754819 3.0417252
3.9711502 -7.5567145 2.5627344
3.9669011 -7.5103884 2.0941038
3.989372 -7.5211167 1.6548865
3.9865084 -7.4904342 1.2166917
4.0093856 -7.5144343 0.79311115
3.9880533 -7.4587741 0.36780557
3.9884648 -7.4470363 -0.05013115
3.9842398 -7.4360285 -0.46574649
3.9754515 -7.4165168 -0.88294667
3.9678559 -7.408556 -1.3055452
3.7120121 -7.6612759 6.4571705
3.747843 -7.6297493 5.779139
6.3864212 -7.8863096 6.4848752
3.7891984 -7.6196165 5.1638694
6.3370113 -7.8336787 5.7355571
6.3315043 -7.8352575 5.0753527
3.9039135 -7.6980515 4.0984755
3.89362 -7.5661135 3.0283136
3.9141402 -7.5605259 2.5558336
3.9095387 -7.5130553 2.0881193
3.93451 -7.5289235 1.6512611
3.9234643 -7.4823174 1.2114401
3.9391098 -7.4930649 0.78828984
3.9273112 -7.4548192 0.36641532
3.9342949 -7.4554496 -0.050024338
3.9240875 -7.4329629 -0.46403763
3.9201159 -7.4223022 -0.88075525
6.1096902 -7.5123615 -1.2301382
3.9001865 -7.3908143 -1.298177
3.6549864 -7.6630535 6.4396453
3.6894357 -7.6287785 5.7611475
6.269496 -7.8397961 6.4148731
3.7277114 -7.6127787 5.1436372
6.2486863 -7.8221679 5.6989493
6.2315049 -7.809041 5.0335078
3.8392498 -7.6871099 4.0800309
3.8322139 -7.5604501 3.0165787
3.8546228 -7.5588031 2.5472078
3.8567226 -7.523942 2.0845284
3.8770068 -7.5311046 1.6464909
3.8606706 -7.4737101 1.2061883
3.8765748 -7.4852643 0.78495198
3.8709102 -7.4583812 0.36541608
3.8774047 -7.4581556 -0.049881916
3.8659661 -7.4329834 -0.46254927
3.8625641 -7.4232774 -0.87804198
6.0647225 -7.5512552 -1.2303902
3.8347085 -7.3760295 -1.2914228
3.5963864 -7.6608143 6.4190984
3.6269159 -7.6184187 5.7364097
6.1899405 -7.838439 6.3825645
3.6697927 -7.6124053 5.1280737
6.1731224 -7.825563 5.6737199
6.1851306 -7.8492341 5.0348577
3.764292 -7.5408325 2.9994791
3.7957041 -7.5574918 2.5388694
3.8026073 -7.5318637 2.0802197
3.8142982 -7.5223579 1.639431
3.8003752 -7.4690266 1.2016463
3.8129268 -7.4743185 0.78133595
3.8127947 -7.4579744 0.36424306
3.8192625 -7.4577751 -0.049721699
3.802074 -7.4210191 -0.46034431
3.80288 -7.4194012 -0.874807
3.768208 -7.3580828 -1.2842083
3.5369494 -7.6559753 6.3967385
3.5709789 -7.6210594 5.7217917
6.12152 -7.8503571 6.3615642
3.6050553 -7.5969338 5.102654
6.0833335 -7.8098154 5.6351333
6.1209478 -7.8665977 5.0218091
3.7029898 -7.53335 2.9874086
3.7276061 -7.5368552 2.5242054
3.7437856 -7.5298419 2.0732777
3.7465808 -7.5025878 1.6300813
3.7438312 -7.4709649 1.1982398
3.7571592 -7.4780002 0.77929616
3.7548306 -7.4571366 0.36307004
3.7612712 -7.4569626 -0.049561478
3.743423 -7.4183574 -0.45874569
3.7492163 -7.4266148 -0.87292862
3.7176485 -7.3704782 -1.2823662
3.4757295 -7.6463447 6.3707528
3.5144536 -7.6217995 5.7060494
6.0521588 -7.8603959 6.3394866
3.548244 -7.5972223 5.0881286
6.0066881 -7.8097959 5.6084194
3.6456156 -7.5330324 2.9783559
3.6682913 -7.5328918 2.5152922
3.6808631 -7.518662 2.0639417
3.6874804 -7.4990082 1.6243571
3.6895971 -7.4769301 1.1955431
3.7054641 -7.4893112 0.77809083
3.6894755 -7.4406524 0.36115846
3.6900885 -7.428853 -0.049223233
3.6920578 -7.429563 -0.45802906
3.6849813 -7.4120765 -0.86854571
3.6767502 -7.4020004 -1.2839012
3.4102077 -7.6260695 6.3363066
3.4532709 -7.6115899 5.6824355
5.939559 -7.8128619 6.2716384
3.4962063 -7.6071987 5.0803466
5.9239659 -7.8008256 5.5757689
3.5977042 -7.5518579 2.9770148
3.6083381 -7.5267572 2.5058038
3.6102099 -7.4903769 2.0500576
3.6311321 -7.5002885 1.6197777
3.636296 -7.4842925 1.19313
3.6550803 -7.502955 0.77716362
3.6358614 -7.446991 0.36037645
3.6299376 -7.4217114 -0.049027409
3.6218259 -7.4018526 -0.45494211
3.6171315 -7.3889914 -0.86322361
3.6130288 -7.3871393 -1.2774541
3.3537276 -7.6249714 6.3181767
3.3984129 -7.614511 5.6689425
5.8824034 -7.837029 6.2619457
3.4396009 -7.6066966 5.0658212
5.8436666 -7.7939172 5.5450978
3.5564988 -7.5848799 2.9813735
3.5383804 -7.4985175 2.4891272
3.5437891 -7.4694047 2.0383279
3.5664611 -7.4834375 1.611382
3.5727932 -7.469851 1.1873106
3.5740986 -7.4525204 0.76965344
3.5814431 -7.4511509 0.35950756
3.5552638 -7.3834791 -0.048629828
3.5763409 -7.4239364 -0.45494211
3.5669758 -7.4011917 -0.86207569
3.5689201 -7.4118404 -1.2779146
3.2961245 -7.620543 6.2976298
3.3379986 -7.6041737 5.6458907
5.7920628 -7.8161058 6.2167139
3.3768797 -7.5917268 5.0419574
5.768847 -7.793304 5.5193734
3.4509666 -7.5970373 3.962074
3.5051551 -7.5962939 2.97735
3.5314343 -7.6043487 2.5170174
3.495837 -7.4866099 2.0371311
3.5200596 -7.5042911 1.6111913
3.5264702 -7.490737 1.1871687
3.5317039 -7.4815135 0.77039522
3.5382199 -7.4784045 0.35976824
3.511606 -7.4087696 -0.048653562
3.5358548 -7.4565668 -0.4556036
3.5116913 -7.4022722 -0.85967553
3.5157566 -7.4175267 -1.2751516
3.2402613 -7.6193614 6.2801046
3.276201 -7.5895858 5.6200285
5.7027001 -7.7950521 6.1720204
3.3261223 -7.6029053 5.0357323
5.6993833 -7.7990842 5.4985957
5.7087936 -7.8205538 4.8782778
3.4600282 -7.5718637 2.4991906
3.4502397 -7.5088015 2.0373704
3.4706564 -7.5186186 1.6096648
3.4812739 -7.5140305 1.1874526
5.5902047 -7.6524863 1.1300476
3.4886684 -7.5093641 0.77104425
5.5635047 -7.6103578 0.65755337
3.4973273 -7.5108423 0.36028957
5.5166335 -7.5379548 0.19403474
3.4555118 -7.4075208 -0.048505209
5.4921813 -7.4880776 -0.71780264
5.4899411 -7.471343 -1.1778374
3.4588983 -7.4147806 -1.2710069
3.1851518 -7.6192522 6.2637877
3.2208471 -7.5889912 5.6048484
5.6226954 -7.7854934 6.1370192
3.2898822 -7.6475158 5.0518141
5.6239653 -7.7958484 5.4718819
5.5559945 -7.7158103 2.5957549
3.398102 -7.5165596 2.0337799
5.5187378 -7.6612506 2.0828681
5.475472 -7.5983911 1.585771
5.4624138 -7.5746942 1.1135894
5.4641638 -7.5715485 0.65129095
5.462666 -7.5611272 0.19376476
5.4310551 -7.5090876 -0.26209643
5.4414544 -7.5151758 -0.71718609
5.4515672 -7.515327 -1.1794758
3.4067411 -7.4214954 -1.2685509
3.1289546 -7.6158066 6.2450538
3.1605299 -7.5757923 5.5806727
5.5645466 -7.8054385 6.1257114
5.5488029 -7.7919827 5.445168
5.4325356 -7.6428194 2.559937
3.3436322 -7.5186381 2.0287528
5.431447 -7.6384645 2.0675735
5.4178872 -7.6165795 1.5825992
5.394527 -7.5781374 1.1092085
5.3892412 -7.5651212 0.64788145
5.3894653 -7.5570598 0.19280943
5.3650923 -7.5062432 -0.71317863
3.347311 -7.4116402 -1.2633318
3.0735166 -7.6134367 6.2275286
3.1033196 -7.5690269 5.5615568
5.4767847 -7.782927 6.0815563
3.1859424 -7.6636295 5.0362511
5.4614062 -7.7697144 5.4060869
5.4344206 -7.7428069 4.1800709
5.3534021 -7.6302056 2.5446615
3.2912107 -7.5247798 2.0249226
5.368207 -7.6484675 2.0613265
5.3444223 -7.6117539 1.5747529
5.3313718 -7.587534 1.1057748
5.3289495 -7.5784616 0.64621145
5.3159461 -7.5515623 0.19183335
5.3310127 -7.5645475 -0.26172891
5.297667 -7.5088782 -0.71032715
3.2857237 -7.3959174 -1.2571917
3.0185196 -7.6114144 6.2106075
3.0463119 -7.5618453 5.5424409
5.4072952 -7.7852416 6.0573249
5.3898506 -7.7688046 5.3823414
5.3031878 -7.6581511 2.5430813
3.2315509 -7.5136151 2.0165443
5.2989326 -7.6491532 2.0527098
5.2684135 -7.6022635 1.566072
5.2541575 -7.5760427 1.099381
5.2487903 -7.5626645 0.64210612
5.2478323 -7.5528383 0.19104417
5.2331247 -7.5232615 -0.25918457
5.2252846 -7.5036063 -0.70678204
3.2284122 -7.3887744 -1.2525866
2.9584584 -7.5956416 6.1828089
2.9913354 -7.5588641 5.5266986
5.3356023 -7.7835226 6.0304008
5.3062377 -7.7493834 5.3462281
5.2340221 -7.6582456 3.0354404
5.2403131 -7.6674495 2.5354438
3.1657245 -7.4868002 2.0040965
5.210011 -7.6202579 2.0363381
5.203299 -7.6075907 1.560563
5.1784086 -7.5655298 1.0932239
5.1763554 -7.5568695 0.63890529
5.1736841 -7.5444942 0.19002654
5.1670628 -7.5263867 -0.2581951
5.1571207 -7.5034819 -0.70377642
3.1709223 -7.3802996 -1.247828
2.9063892 -7.5995121 6.1713266
5.2923617 -7.8111868 6.7325749
2.9404049 -7.5655141 5.5182652
5.2443042 -7.7519054 5.9808612
5.225987 -7.7335515 5.3130832
5.1486692 -7.6334853 3.0130477
5.159183 -7.6490731 2.5188515
5.1353002 -7.6107984 2.0253518
5.1416283 -7.6173091 1.5560555
5.1174383 -7.575768 1.0901455
5.109777 -7.5587368 0.63640034
5.0897503 -7.5206218 0.18863508
5.0989175 -7.5256753 -0.25709254
5.0941925 -7.5102305 -0.70146441
3.1117361 -7.3668475 -1.2423018
2.8473833 -7.5843821 6.1447368
5.2140198 -7.7981749 6.6936584
2.8844934 -7.5586891 5.5002737
5.1737151 -7.749598 5.9544759
2.9536893 -7.6278963 4.9636226
5.1605964 -7.7387195 5.2947793
5.0917287 -7.6499009 3.0071385
5.0848913 -7.6396289 2.5054197
5.0673971 -7.6104646 2.0169506
5.0718355 -7.6142497 1.549044
5.0521321 -7.5789342 1.0861197
5.045032 -7.5625615 0.63410413
5.033514 -7.5367451 0.18826126
5.0209756 -7.5094547 -0.25548112
5.0313768 -7.5164905 -0.69915241
3.0554872 -7.3593359 -1.2378503
2.7922537 -7.5785346 6.1260028
5.1311064 -7.7770233 6.6483521
2.8241351 -7.539073 5.4732871
5.1098423 -7.7565689 5.9356289
5.090085 -7.7353911 5.2710338
5.0259113 -7.652401 2.9959424
5.0114408 -7.6303682 2.4922514
4.99862 -7.6079531 2.0081184
4.9968596 -7.6023822 1.5403631
4.9744296 -7.5625043 1.0793706
4.9749484 -7.5575457 0.6311121
4.9717703 -7.5441136 0.18767975
4.9610415 -7.5192623 -0.25477436
4.970325 -7.5247588 -0.69707161
3.0035541 -7.3614769 -1.2350872
2.6650686 -7.524096 6.7382727
2.7324281 -7.5588098 6.0963907
5.0371032 -7.7374125 6.5879445
2.7684066 -7.5306454 5.4547334
5.0451608 -7.7616358 5.9157052
5.0198092 -7.7314901 5.2472878
4.9602556 -7.6543827 2.984746
4.944067 -7.6294012 2.4819798
4.9385643 -7.6179957 2.002733
4.9152465 -7.5791287 1.5295119
4.9025264 -7.5537372 1.0738057
4.9110942 -7.5611577 0.62888545
4.8894153 -7.5191593 0.18630907
4.9033585 -7.5319691 -0.25418067
4.8990183 -7.5166917 -0.69352651
2.9502397 -7.3595896 -1.2317101
2.6806715 -7.5604148 6.0843043
4.9741354 -7.7442026 6.567615
2.7187803 -7.5381551 5.4479866
4.966054 -7.743504 5.8785505
4.9478993 -7.7240925 5.2215633
4.8840146 -7.6390319 2.9670186
4.8810515 -7.6343975 2.4738154
4.8612108 -7.6004415 1.9902388
4.8442054 -7.5709419 1.5218327
4.8416276 -7.5610986 1.0706087
4.8312364 -7.5390749 0.62457132
4.8259106 -7.5220909 0.18564449
4.8262587 -7.5139737 -0.25256926
4.8193703 -7.4946165 -0.68874836
2.8966994 -7.3564062 -1.2281796
2.6245503 -7.5488763 6.0619445
4.9056106 -7.7415733 6.5397344
2.66696 -7.5391026 5.4367423
4.9053817 -7.7531786 5.8629346
4.8795195 -7.7212472 5.1993022
4.8157554 -7.6350937 2.9539561
4.8145595 -7.6331973 2.4638076
4.7931185 -7.5962658 1.9814067
4.7823973 -7.576344 1.5169914
4.776051 -7.5604424 1.0663462
4.7577 -7.5255733 0.62102264
4.7609506 -7.5219927 0.18491761
4.7549157 -7.5037613 -0.25124055
4.7439175 -7.4777417 -0.68450969
4.7362022 -7.4511976 -1.12163
2.8493686 -7.3685117 -1.2272586
2.5753548 -7.5565424 6.0552969
4.8459353 -7.7522006 6.5234709
2.6138754 -7.5357919 5.4226866
4.8389783 -7.7531085 5.8403187
4.8063045 -7.7097425 5.1715989
4.748733 -7.6322207 2.9415159
4.7411313 -7.6200027 2.4501123
4.7216492 -7.5857387 1.9710667
4.7076769 -7.5603495 1.5079765
4.6996369 -7.5415697 1.0595971
4.6903186 -7.5207663 0.61823934
4.6972332 -7.5230784 0.18423228
4.6780529 -7.4836335 -0.24960084
4.6714993 -7.4644513 -0.68065631
4.6703668 -7.4481802 -1.116841
2.7939312 -7.359066 -1.2228069
2.5190971 -7.5427299 6.0317287
4.7752066 -7.7443728 6.492105
2.5588026 -7.5258508 5.4041328
4.7643681 -7.738883 5.8074718
4.7443409 -7.7153988 5.1557684
4.6754656 -7.6182833 2.9250324
4.6544232 -7.5839963 2.4293063
4.6489577 -7.5721254 1.9600804
4.6364298 -7.5487657 1.4999634
4.6329951 -7.5372729 1.0549794
4.6284032 -7.5239134 0.61615187
4.6342068 -7.5245171 0.1835677
4.6131592 -7.481566 -0.24858311
4.6067557 -7.4624324 -0.6778819
4.6115317 -7.455605 -1.1136903
2.7418232 -7.3575521 -1.2197369
2.4702907 -7.5504723 6.0256853
4.7140632 -7.7512717 6.4735179
2.502382 -7.5108109 5.382206
4.6984248 -7.73772 5.7848554
4.6779823 -7.7131548 5.1349907
4.6109157 -7.617558 2.9138362
4.5863209 -7.5769253 2.4179816
4.5791411 -7.5620842 1.9501712
4.5772529 -7.5559893 1.4957899
4.5686431 -7.5358396 1.0508353
4.5609341 -7.5172033 0.61329901
4.5583639 -7.5041046 0.18238394
4.5432734 -7.4704442 -0.24728265
4.5416956 -7.4590497 -0.67503041
4.5408988 -7.4431109 -1.107641
2.6891603 -7.3538198 -1.2163599
2.4183242 -7.5480361 6.011786
4.6551085 -7.7612028 6.4578352
2.4480391 -7.5008664 5.3642149
4.6179566 -7.7114611 5.7439313
4.6136155 -7.7133718 5.1161923
4.5421667 -7.6089835 2.8998408
4.5229311 -7.5767603 2.4090271
4.5041161 -7.5422502 1.9378924
4.5131054 -7.5543079 1.489947
4.5009165 -7.527936 1.0458623
4.4773312 -7.4825573 0.6082195
4.4880848 -7.4916234 0.18140784
4.4798684 -7.4690347 -0.24632145
4.4773641 -7.4560056 -0.67225599
2.6502337 -7.379487 -0.82273394
4.4741735 -7.4359822 -1.102474
2.6339777 -7.3422785 -1.2117547
2.3655272 -7.5422068 5.9954691
4.585021 -7.7517858 6.4264693
2.399451 -7.5078688 5.3585925
4.5414166 -7.6903124 5.707315
4.5489812 -7.7123413 5.096899
4.4765902 -7.6047678 2.8877115
4.4597168 -7.5761042 2.4000726
4.4473467 -7.5520744 1.9333687
4.4486513 -7.5512753 1.483937
4.4329557 -7.5186305 1.040771
4.4206886 -7.4918466 0.60675824
4.4232168 -7.4871712 0.18063943
4.4161439 -7.466269 -0.24533199
4.4107013 -7.4481645 -0.66909629
4.4153013 -7.4411135 -1.0991973
2.5823176 -7.3396592 -1.2086847
2.3124251 -7.5344906 5.9779439
4.5144048 -7.740396 6.3939424
2.3481531 -7.5058756 5.3467855
4.4614949 -7.661963 5.6658521
4.4867182 -7.7145658 5.0800791
4.4221301 -7.6157413 3.8914833
2.4902594 -7.537847 3.2866306
4.4729857 -7.7095199 3.4178696
4.4136224 -7.6041455 2.8771372
4.3976502 -7.5766268 2.3916447
2.5338459 -7.4851184 1.9483209
4.388175 -7.5572639 1.9277679
2.5249903 -7.4163151 1.5228467
4.3814335 -7.5426221 1.4769256
2.5528028 -7.4638309 1.1311032
4.3657784 -7.509635 1.035798
2.5365562 -7.3910427 0.72765213
4.3585825 -7.4912381 0.60453165
2.5528958 -7.4175644 0.34113032
4.3570638 -7.4796147 0.17980871
2.541533 -7.3678298 -0.046250258
4.3496008 -7.4578233 -0.2441729
2.537694 -7.3525381 -0.42941949
4.3448071 -7.4406486 -0.6660136
2.5442183 -7.3672709 -0.81782925
4.3540297 -7.4415221 -1.0952905
2.5330446 -7.3432221 -1.2066891
2.2611108 -7.5317492 5.9646487
4.4469423 -7.7333722 6.3654809
2.2955179 -7.4987917 5.3316054
4.4068465 -7.6760402 5.6561594
4.4258966 -7.7185793 5.0647435
2.3998303 -7.4969268 3.737741
2.4422545 -7.5477104 3.2843356
2.4362884 -7.4581037 2.7922714
4.3465834 -7.5956135 2.8637638
2.4701257 -7.4995551 2.3703783
4.3299961 -7.566627 2.3800566
2.4860363 -7.4949956 1.9468845
4.3300781 -7.5637078 1.9225979
2.4840972 -7.4456358 1.5257088
4.3159604 -7.535996 1.4704149
2.5028679 -7.4671526 1.129258
4.3013477 -7.5044065 1.031417
2.4924276 -7.4102426 0.72802299
4.2976441 -7.4918814 0.60244417
2.4967966 -7.4018497 0.33969662
4.2956514 -7.4793324 0.1791649
2.4876292 -7.3577085 -0.046090037
4.2873149 -7.4557753 -0.24323997
2.4861326 -7.3490539 -0.42831698
4.2821565 -7.4377899 -0.66339332
2.4964147 -7.3752069 -0.81699443
4.2904415 -7.4371634 -1.0907536
2.4797111 -7.3342881 -1.202698
2.2094686 -7.5271339 5.9501452
4.3745184 -7.716608 6.3294683
2.2447188 -7.496891 5.3203611
4.3418169 -7.671402 5.6330051
4.3647676 -7.7213812 5.048913
4.2784152 -7.5840631 2.8494575
2.4240627 -7.5145707 2.3703783
4.260735 -7.5527225 2.367415
2.4376009 -7.5027213 1.9449695
4.2648683 -7.5569673 1.9141966
2.4362302 -7.4542065 1.5243732
4.2565508 -7.539155 1.4659075
2.4514444 -7.4654412 1.1267031
4.2430086 -7.5090451 1.0284569
2.4462891 -7.4235053 0.72783756
4.2427545 -7.50248 0.60119164
2.4519598 -7.4189277 0.33978352
4.2378559 -7.4846692 0.17866647
2.4440088 -7.3775797 -0.046119709
4.2306414 -7.4628105 -0.24261801
2.435338 -7.3471103 -0.42732474
4.2211819 -7.4370446 -0.66100425
2.4288855 -7.3233638 -0.80958521
4.2197151 -7.4193711 -1.0843263
2.4237859 -7.3165345 -1.1973253
4.2892489 -7.6598873 6.9756613
2.1559911 -7.5152764 5.9302025
4.3143806 -7.7205653 6.3108811
2.192868 -7.4906812 5.3063054
4.2761903 -7.6647844 5.6087737
4.2982721 -7.7138553 5.0266514
4.2193284 -7.5877452 2.8410602
4.1983719 -7.5500579 2.3584604
4.1927843 -7.536912 1.902564
4.1833611 -7.5168848 1.4565588
4.1838083 -7.5115166 1.0252601
4.1825542 -7.5031033 0.59917378
4.1723609 -7.4756107 0.17783576
4.1633153 -7.4502344 -0.24137411
4.1632991 -7.4410529 -0.65907753
4.1581016 -7.4165678 -1.0801674
2.3803718 -7.3359685 -1.1980929
2.1040325 -7.5076499 5.9138861
4.2472911 -7.7112422 6.2818389
2.1416328 -7.4857087 5.2933741
4.2225833 -7.6790643 5.6001582
4.1599016 -7.5901551 2.8323519
4.1399117 -7.5536809 2.3516128
4.1262717 -7.5256772 1.8933011
4.1328921 -7.5346317 1.4550563
2.3471625 -7.4553061 1.1207417
4.1209154 -7.5065813 1.0211159
4.1186638 -7.4962764 0.59659922
4.1100287 -7.4712877 0.17712964
4.0953393 -7.4353638 -0.24007367
4.1050448 -7.443759 -0.6570738
4.1014805 -7.4219713 -1.0772688
2.3257396 -7.3202996 -1.1931808
2.0524592 -7.5004377 5.8981738
4.1847506 -7.7092566 6.2591863
2.0909867 -7.4819827 5.2815676
4.1472821 -7.6529698 5.5624647
4.0951848 -7.582088 2.8199117
4.0820241 -7.5577207 2.3450286
4.0535569 -7.501884 1.8810223
4.0607953 -7.5121446 1.4458746
2.2984588 -7.4601078 1.1193223
4.0568233 -7.4985385 1.0166166
4.0512156 -7.4819312 0.59346801
4.0445719 -7.4603295 0.17627816
4.0277033 -7.4199405 -0.23877321
4.0464387 -7.4451547 -0.654993
4.0496945 -7.4356723 -1.0756304
2.2722702 -7.3070688 -1.1887292
1.9452441 -7.4772687 6.5221782
2.0049598 -7.5075021 5.8939433
4.1208591 -7.7039242 6.23421
2.0454743 -7.4962673 5.282692
4.093102 -7.6648936 5.552772
4.0240264 -7.5609283 2.8028061
4.0260558 -7.5647421 2.3394978
3.9968946 -7.5067897 1.8760678
3.9970112 -7.5038514 1.4395308
3.9967232 -7.4970026 1.0130644
3.9883254 -7.4749637 0.59096307
3.9798758 -7.4497328 0.17544745
3.9693696 -7.4207158 -0.23800991
3.9846752 -7.43996 -0.65237272
3.9781921 -7.4123058 -1.068699
2.2242281 -7.3104744 -1.1870407
1.8983886 -7.4853601 6.5189528
1.9516264 -7.4919066 5.8721876
4.0507393 -7.6858568 6.1993589
1.9911404 -7.4775109 5.2607651
4.0369697 -7.6727123 5.5403872
3.9612272 -7.5543342 2.7912989
3.9558198 -7.5440216 2.3255394
3.941232 -7.5130129 1.871544
3.9339404 -7.4959331 1.433354
2.1935866 -7.4431252 1.1126512
3.9363332 -7.4941335 1.0093939
3.9219601 -7.460443 0.58790141
3.9187226 -7.4448171 0.1747621
3.9167714 -7.4316673 -0.23758586
3.9170792 -7.4228258 -0.64875054
3.9205785 -7.413775 -1.0654224
1.8454581 -7.4686785 6.4944406
3.9507146 -7.592689 6.8008499
1.8993446 -7.4790292 5.8528495
3.9926255 -7.6896167 6.1825147
1.9377377 -7.460772 5.2405248
3.9820592 -7.6823764 5.5296178
3.903023 -7.5556984 2.7829018
3.8935173 -7.5372968 2.3160582
3.8820574 -7.5118961 1.8652968
3.8856082 -7.5155511 1.4325193
2.1440394 -7.4431276 1.1106641
3.8670027 -7.4731688 1.0033553
3.860512 -7.4542489 0.58553565
3.855479 -7.4349952 0.17397292
3.8605034 -7.4351559 -0.23693563
3.8576629 -7.4201822 -0.64643854
3.855305 -7.3998613 -1.0600033
1.7953067 -7.4620309 6.4789596
1.8534184 -7.4905424 5.8528495
3.9231277 -7.6704865 6.1476641
1.8882693 -7.4580913 5.2304049
3.9172199 -7.672143 5.5048475
3.8436587 -7.5540929 2.7735715
3.8366964 -7.54041 2.3097372
3.8252602 -7.5146885 1.8601269
3.8130219 -7.4874139 1.4226698
2.0921612 -7.4342275 1.1073996
3.8138607 -7.4826007 1.0014608
3.793848 -7.4369192 0.58233482
3.8015997 -7.4424853 0.17359909
3.8043406 -7.4382343 -0.2362854
3.8020625 -7.4241896 -0.64474308
3.7903504 -7.3854265 -1.0545841
1.8038766 -7.4870567 5.8413672
3.8631711 -7.6689696 6.1273341
1.8418776 -7.4671283 5.2287178
3.8526568 -7.6614046 5.4800777
3.7810552 -7.5452466 2.7617531
3.7683151 -7.5198236 2.2963054
3.7672625 -7.5144486 1.8543106
3.7577255 -7.4921613 1.4191641
2.0373254 -7.4135175 1.1024318
3.758076 -7.4863377 0.99885595
3.7329173 -7.4297509 0.57996905
3.7473249 -7.4487019 0.17320451
3.740191 -7.4248357 -0.23512632
3.7447627 -7.4242334 -0.64273936
3.7310894 -7.3810992 -1.0506773
1.7559024 -7.4894514 5.8347201
3.7972319 -7.6546097 6.0971303
1.7958324 -7.4774852 5.2281556
3.792861 -7.6592259 5.4617696
1.8615589 -7.4526234 4.1395755
3.7166026 -7.5316567 2.7483797
3.7135656 -7.5255022 2.2910383
3.7011988 -7.4971437 1.8444014
3.7073176 -7.506237 1.4174947
1.9841053 -7.3971963 1.0981736
3.6949089 -7.4745402 0.9942382
3.6748722 -7.4274802 0.57802075
3.6864598 -7.4410954 0.1724984
3.6754613 -7.4091396 -0.23391068
3.6898236 -7.4283195 -0.64112091
3.6764457 -7.3852043 -1.0480309
3.7421923 -7.6444626 6.7629018
1.7054874 -7.4806643 5.819612
3.7341156 -7.6448507 6.0709925
1.7461538 -7.4722576 5.2169113
3.7299135 -7.6497855 5.4386148
3.6636739 -7.5406418 2.7434037
3.666477 -7.546411 2.2905114
3.6508586 -7.5109301 1.8422472
3.6387689 -7.4827356 1.4088137
1.9334177 -7.3891211 1.0951929
3.6498456 -7.498857 0.99447501
3.6270444 -7.445405 0.57767284
3.6043518 -7.3889933 0.17077467
3.6194012 -7.409996 -0.23323219
3.6196439 -7.4006643 -0.63680518
3.6179626 -7.3809004 -1.04425
1.6540402 -7.4660959 5.8002734
3.6754961 -7.6434102 6.0518246
1.6933091 -7.4521871 5.1955466
3.6664963 -7.6383433 5.4143834
1.7652984 -7.455204 4.1286645
3.610775 -7.5492616 2.7384274
3.5718193 -7.4678144 2.2599607
3.5937445 -7.5102873 1.8366464
3.5902326 -7.4995861 1.4078121
1.8833933 -7.3826213 1.092496
3.5668647 -7.4440999 0.98429227
3.6002727 -7.5070972 0.58073443
3.5628409 -7.4190812 0.17096157
3.575599 -7.4356685 -0.23334527
3.5776265 -7.4299212 -0.63742173
3.5717437 -7.4011741 -1.043998
1.8729895 -7.2624087 -1.1650897
3.624275 -7.6395864 6.7187319
1.605517 -7.4636416 5.7906046
3.6243486 -7.6569896 6.0448542
1.6436291 -7.4446707 5.1831775
3.5983205 -7.615746 5.3826137
1.7207062 -7.4710426 4.1315107
3.5753157 -7.5944915 2.7468247
3.5514061 -7.5437045 2.2762895
3.5521717 -7.5419145 1.839016
3.5428877 -7.5187984 1.4073112
1.8330441 -7.3738651 1.0895154
3.5215449 -7.4667435 0.98441064
3.5541422 -7.5290465 0.58073443
3.5176785 -7.4417067 0.17098235
1.8446833 -7.3385711 -0.044903222
3.5358946 -7.4701166 -0.23374106
3.5349591 -7.4580398 -0.63796115
3.5139194 -7.396965 -1.0403433
3.5634193 -7.6318855 6.6926036
1.5585514 -7.4678931 5.7863741
3.5570173 -7.6355495 6.0105844
1.5963585 -7.4473381 5.1781173
3.5355353 -7.6032982 5.3583817
1.6769478 -7.4909096 4.1367292
3.5286493 -7.6162863 2.7468247
3.505007 -7.5617962 1.8385851
1.7863669 -7.3792009 1.0886638
3.4908168 -7.4832039 -0.63826942
3.4655252 -7.412096 -1.039461
1.5076444 -7.4523258 5.767036
3.4955137 -7.6254125 5.9856081
1.548107 -7.4448481 5.1696839
3.4744411 -7.5934329 5.3363047
1.6242197 -7.4700904 4.1196508
3.4733324 -7.6120687 4.2155123
3.4695196 -7.6072278 3.6946459
3.4751036 -7.6265211 3.2137854
1.7399204 -7.3852057 1.087954
1.4012841 -7.4052377 6.3622041
3.4478881 -7.6272397 6.6509228
1.4586724 -7.4450169 5.7543454
3.4396236 -7.6266818 5.9699254
1.5014168 -7.4493432 5.1663108
3.4170606 -7.5907888 5.3196115
1.6322064 -7.4826417 3.1707265
1.6921411 -7.385129 1.0863928
3.3415778 -7.3817658 -1.029379
1.3566447 -7.4182062 6.3660741
1.4095503 -7.4358225 5.7404456
3.3775778 -7.6134157 5.9432063
1.4533039 -7.4462404 5.1578774
3.356091 -7.5792527 5.2969956
1.51884 -7.4230514 4.0831223
1.5856889 -7.4898038 3.1695788
1.642922 -7.3779812 1.0838379
1.6556736 -7.3445621 -0.044677727
3.2869396 -7.3812871 -1.0264804
1.3124305 -7.4339156 6.3725247
1.3607396 -7.4270902 5.7271509
3.318429 -7.6056457 5.9211345
1.4039049 -7.4355145 5.1443839
3.3014479 -7.581161 5.2840724
1.533013 -7.4668102 3.1558082
1.5999222 -7.3985658 1.0853992
3.2284534 -7.3713293 -1.0223216
1.2647405 -7.4297762 6.3622041
3.2772171 -7.6203647 6.5912008
1.3138932 -7.4282389 5.7217121
3.2582197 -7.5944448 5.896739
1.3564738 -7.434226 5.1376371
3.2356308 -7.5563478 5.2528405
1.4171836 -7.3866649 4.0532355
1.4596441 -7.4601111 3.6094892
1.4842845 -7.4615769 3.1496878
1.552056 -7.3966179 1.0836959
3.173353 -7.3682222 -1.0191709
1.2182631 -7.4321179 6.3576884
3.2252145 -7.6280708 6.5806251
1.2676198 -7.4322338 5.7186904
3.2049162 -7.5985432 5.884541
1.309972 -7.4375224 5.1342635
3.1836472 -7.5628562 5.2436862
1.3708699 -7.390028 4.0503893
1.4168665 -7.4849033 3.6172101
1.433931 -7.4469547 3.1397421
1.4432095 -7.3840227 2.6776032
1.4806972 -7.3973565 1.8599893
1.4960753 -7.4069867 1.4688478
1.5054579 -7.4001818 1.0828443
1.5001521 -7.3347731 0.69714785
1.5108371 -7.3543191 0.32648933
1.5093005 -7.3209066 -0.044357285
1.5072991 -7.3047514 -0.41177967
1.5134844 -7.3282647 -0.78516614
3.1195731 -7.3674574 -1.0163983
3.167532 -7.6216893 6.558229
1.2214762 -7.436727 5.7162728
3.1507504 -7.600018 5.8706007
1.2626501 -7.4356365 5.1275167
3.1378267 -7.5838056 5.2447634
1.3261206 -7.4017663 4.0522866
1.3642482 -7.4570241 3.5996237
1.3844895 -7.4356294 3.1313267
1.3983999 -7.3955159 2.6786091
1.4317703 -7.3881917 1.8554411
1.449845 -7.4121737 1.4680845
1.4583005 -7.4005389 1.0815668
1.4545379 -7.3409095 0.69686973
1.4654884 -7.3624711 0.32644591
1.4621969 -7.319243 -0.04429201
1.46382 -7.3207164 -0.41216552
3.0666847 -7.3681426 -1.0138779
1.4570882 -7.2936707 -1.155419
3.1136019 -7.6235857 6.5432987
1.1742063 -7.4338512 5.7084169
3.0939233 -7.5943303 5.8514328
1.2141999 -7.426105 5.1157103
3.0772698 -7.5685706 5.2210703
1.2794799 -7.4028244 4.0484915
1.3345869 -7.420341 3.121381
1.3545198 -7.4122982 2.6816268
1.3876623 -7.4035182 1.8571167
1.4050674 -7.4247885 1.4688478
1.4119371 -7.4044857 1.0808572
1.4087174 -7.3457847 0.69649881
1.4182063 -7.3605332 0.325968
1.4166898 -7.3251319 -0.044274207
1.4129907 -7.2991714 -0.41045669
3.0150323 -7.3712115 -1.0117353
1.4100561 -7.290832 -1.153577
1.0740153 -7.4033728 6.3151145
3.0513124 -7.6040363 6.5103269
1.1266593 -7.4283123 5.6987476
3.0360751 -7.5852098 5.8299417
1.1655289 -7.4138088 5.1022167
3.0185814 -7.5567918 5.2000699
1.2357682 -7.4209561 4.0541844
1.286346 -7.4129148 3.1148782
1.364683 -7.4032755 1.0794379
1.3635836 -7.2831683 -0.40907857
2.963088 -7.3730044 -1.0094669
1.3631138 -7.2876911 -1.1517349
2.9810545 -7.5628877 6.4593143
1.0799124 -7.4272008 5.6927047
2.9844127 -7.5908175 5.8200674
1.1179186 -7.4069195 5.092659
2.961077 -7.5469317 5.1806846
1.1920213 -7.4396987 4.0603514
1.2390084 -7.4097323 3.1102879
1.3135072 -7.3793492 1.0747539
2.9119639 -7.3762832 -1.0074505
1.3159117 -7.2823043 -1.1495858
2.9396808 -7.5941792 6.4705124
1.0331118 -7.4250069 5.6860571
2.9231205 -7.5710173 5.7910252
1.0698448 -7.3956332 5.0802898
2.915926 -7.5681038 5.1828384
1.1470194 -7.4512234 4.0627236
1.1911712 -7.4025998 3.1041677
1.2651889 -7.369709 1.072199
2.860553 -7.3782878 -1.005308
1.2679784 -7.2717457 -1.1466693
0.94148785 -7.45297 6.3415623
2.875227 -7.5652347 6.4306974
0.98532933 -7.4146204 5.6733661
2.8745909 -7.5834827 5.7869592
1.0224051 -7.3873134 5.0701699
2.8622792 -7.5669374 5.1699152
1.1014066 -7.458992 4.0631976
1.1440331 -7.3988123 3.0995774
1.215585 -7.3509645 1.0683666
1.2223533 -7.2735419 -1.1457483
2.8243749 -7.5709977 6.4207439
0.93871433 -7.4118319 5.6667185
2.8223283 -7.5857196 5.7753425
0.97532469 -7.3803301 5.0611739
2.803771 -7.5519695 5.1478376
1.0557415 -7.4664812 4.0636721
1.0983421 -7.4038649 3.0988123
1.1692134 -7.3504643 1.0672312
2.756253 -7.3765936 -1.000393
0.84814191 -7.4480186 6.3280158
2.7706001 -7.5683341 6.4039469
0.89169443 -7.4047956 5.6570497
2.7640052 -7.5707793 5.7509465
0.9304347 -7.3894577 5.0634232
2.7576685 -7.5698228 5.148376
1.0097903 -7.4719462 4.0631976
1.0514625 -7.4004025 3.0946045
1.1222959 -7.345758 1.0655279
1.1450601 -7.3570862 -0.41106305
2.7047918 -7.3766017 -0.9981246
0.79817235 -7.4135756 6.2944727
2.715112 -7.5601387 6.3827953
0.84497708 -7.3990455 5.6485891
2.708168 -7.5615406 5.7311978
0.88625568 -7.404881 5.0701699
2.7023785 -7.5620027 5.1316833
2.6791792 -7.5219326 4.0229368
1.0025527 -7.3810797 3.083894
1.0753366 -7.3397732 1.0636827
1.0872804 -7.2882147 -0.043728273
2.6524272 -7.3734565 -0.99547803
0.75343984 -7.4259362 6.3009233
2.6613898 -7.5559793 6.3653765
0.79785061 -7.388248 5.6365027
2.655246 -7.5595827 5.7172575
0.83912522 -7.3953886 5.0600495
2.6489608 -7.5585613 5.1182213
0.95558208 -7.3742642 3.0785387
1.0305552 -7.3481936 1.0639665
2.5788751 -7.3421521 -0.22008638
2.5876491 -7.3548131 -0.60266447
2.5982232 -7.3643336 -0.99207532
1.0364934 -7.252439 -1.1380731
2.6088436 -7.5544057 6.3504462
0.7524215 -7.3922119 5.6358981
2.6008599 -7.5526428 5.6998324
0.79196835 -7.3839531 5.0488052
2.5934968 -7.5483747 5.1004515
0.90828049 -7.363483 3.0716531
2.5734298 -7.5241399 2.602206
2.5588572 -7.4772696 1.7433708
2.5721476 -7.511826 1.3443745
0.98663139 -7.3632088 1.065244
2.5521519 -7.4449496 0.93846995
2.5452411 -7.4163494 0.54691744
2.552166 -7.4238648 0.16306975
2.5341015 -7.3587828 -0.22011465
2.539871 -7.3630118 -0.60204792
2.5487714 -7.36795 -0.99043703
0.99170619 -7.2567043 -1.1377661
0.65378064 -7.3394828 6.2202911
2.5544086 -7.5465398 6.3305387
0.70742863 -7.4006553 5.6389198
2.5406723 -7.5275822 5.6690478
0.74731153 -7.3952556 5.0533028
2.5409472 -7.5457788 5.0880666
2.5329406 -7.5524983 3.5200384
0.86222208 -7.3615761 3.068593
2.5194726 -7.5210476 3.0415673
2.5263081 -7.5370851 2.6012728
2.4953063 -7.4445925 2.1435521
2.5048561 -7.4687581 1.73777
2.5137742 -7.4910121 1.3378638
0.93691713 -7.333776 1.0601343
2.5086362 -7.4670582 0.93929875
2.4980972 -7.4270992 0.54656953
2.4973085 -7.4119086 0.16246749
0.95190942 -7.2990608 -0.043680798
2.4885814 -7.3732457 -0.22008638
2.4946446 -7.3784575 -0.60204792
2.4984176 -7.3684182 -0.98842061
0.9465223 -7.2577534 -1.1369987
2.4957325 -7.5249147 6.2994332
0.6615091 -7.3993015 5.6346898
2.4844685 -7.5128884 5.6463947
0.70098388 -7.3898225 5.046556
2.4840391 -7.5292192 5.0665274
2.4785573 -7.5435667 3.5087211
0.81611937 -7.3584628 3.0651503
2.47153 -7.5310426 3.0394189
2.4516869 -7.4661794 2.1453958
2.4580669 -7.4812036 1.7371237
0.89201969 -7.3403692 1.0602762
2.4447138 -7.358191 -0.9850179
0.90111935 -7.2565603 -1.1359241
2.4492717 -7.5393419 6.2988114
0.61576504 -7.399251 5.6316681
2.4343102 -7.5156012 5.6371012
0.65482408 -7.3849235 5.0403714
2.4313166 -7.5242734 5.0530658
2.4288621 -7.5481844 3.503871
0.76970255 -7.3513861 3.0601776
2.4287021 -7.5567327 3.0437155
0.84492236 -7.3280039 1.0577213
0.85599822 -7.2570462 -1.1351566
2.3932345 -7.5236387 6.2733049
0.56955683 -7.3925629 5.6238117
2.3844583 -7.5187573 5.6283884
0.60895485 -7.3822088 5.0358739
2.3812902 -7.526999 5.0449886
0.72403741 -7.3504534 3.0578823
2.3750031 -7.5483356 3.0344064
0.80069411 -7.3399386 1.0587149
0.81792468 -7.2969923 -0.77045214
0.8111245 -7.2592158 -1.1346961
0.47194171 -7.3296776 6.2002945
2.342603 -7.5239782 6.2614851
0.52362293 -7.3879714 5.6177688
2.331764 -7.5122561 5.6127057
0.56270307 -7.3734374 5.0274405
2.3320696 -7.5318098 5.038527
0.67756337 -7.3400373 3.0517621
2.3115711 -7.5026665 2.1432886
0.7531094 -7.3200965 1.0551664
0.77156496 -7.2870383 -0.7688868
0.76625639 -7.2611079 -1.1342356
0.42753622 -7.3423524 6.2086802
2.2918296 -7.5232315 6.249043
0.47756103 -7.3799138 5.6093082
2.280422 -7.5092864 5.5999269
0.51733422 -7.3751016 5.0263162
2.2806814 -7.5290418 5.0272188
0.63219589 -7.3403745 3.0502319
2.2657704 -7.5176325 2.1435521
0.70770365 -7.319653 1.0544567
0.72139567 -7.262723 -1.133775
2.2420478 -7.525147 6.2390895
0.43157119 -7.3707747 5.6002436
2.2298996 -7.5083113 5.588891
0.47228292 -7.3814383 5.0285649
2.2284577 -7.5226955 5.0137568
0.58736515 -7.3468781 3.0513794
0.6259656 -7.3453503 2.2131007
0.66215324 -7.316957 1.0534631
2.175117 -7.2680421 -1.3459047
0.33691132 -7.3363595 6.1996493
2.1903584 -7.5199699 6.2235365
0.3856281 -7.3597579 5.5899701
2.1803832 -7.5101261 5.5801783
0.42703009 -7.3850226 5.0291271
2.1867106 -7.5516057 5.0239878
0.54132283 -7.3374438 3.0460243
2.1634669 -7.5105715 2.1338074
0.61674577 -7.3149638 1.0526116
2.139246 -7.5159483 6.209228
0.34024137 -7.3572102 5.5863438
2.1333723 -7.5202312 5.5778551
0.38153774 -7.3842001 5.0268784
2.1249635 -7.5105567 4.9879098
0.45124263 -7.4249358 4.0086422
0.49641556 -7.3424706 3.0467892
2.1081953 -7.4912033 2.1245897
0.57161909 -7.3156495 1.0521858
2.087846 -7.5100751 6.1936755
0.29483661 -7.3527904 5.5815096
2.0834939 -7.5198436 5.5679808
0.33595872 -7.3806195 5.0229425
2.0723314 -7.4998999 4.9722943
0.36917621 -7.3224239 4.4489999
0.45107031 -7.3407674 3.0448766
0.46676657 -7.264751 2.5907638
0.48721334 -7.3040228 2.1975741
2.037009 -7.5053658 6.1793671
0.24949889 -7.3480911 5.5766749
2.0324256 -7.5144134 5.5546212
0.29037294 -7.3751049 5.0178823
2.0247378 -7.5067792 4.9685249
0.35668409 -7.3595719 3.9706907
0.38367128 -7.358511 3.4988239
0.40688685 -7.3590803 3.0513794
0.42453149 -7.3079209 2.6051812
0.44134566 -7.2896662 2.1923985
0.47092858 -7.3126993 1.4243892
1.9853064 -7.4965315 6.1619482
0.20425209 -7.3439083 5.5724444
1.981918 -7.5102143 5.5424232
0.24489497 -7.3701353 5.0133848
1.9775667 -7.514987 4.9658322
0.30928677 -7.3088503 3.9422269
0.33701912 -7.3282409 3.4833822
0.36040968 -7.3346763 3.0402863
0.37934089 -7.3038025 2.6028342
0.39671284 -7.2941499 2.1929736
1.9433321 -7.427012 2.0958824
0.4124994 -7.3023424 1.803256
0.42422351 -7.2840924 1.4182833
1.9352112 -7.2919412 -0.95842648
1.9347681 -7.4911366 6.1476398
0.15915234 -7.3434305 5.5712361
1.9325529 -7.5096202 5.5331297
0.19951132 -7.3657126 5.009449
0.26424375 -7.3053322 3.9393806
0.29158002 -7.3184366 3.4778061
0.31361246 -7.2952104 3.023073
0.33404446 -7.29564 2.5991461
0.35116485 -7.2801833 2.1880858
1.8929548 -7.4201012 2.090615
0.36719722 -7.2950392 1.8008622
0.37941906 -7.2845974 1.4179018
1.8862822 -7.4929972 6.1395526
0.1140414 -7.3410821 5.5688186
1.8806955 -7.4984398 5.5162854
0.15408725 -7.3560495 5.00214
0.21899134 -7.2927375 3.9317904
0.24688241 -7.3264079 3.4808087
0.26836774 -7.2840705 3.0177176
0.2893849 -7.3003764 2.600152
0.30652812 -7.2831578 2.1883733
1.8478558 -7.4334488 2.0911419
0.32105729 -7.2661157 1.793202
0.33354333 -7.2612929 1.4129406
1.83766 -7.4937844 6.1308432
0.068965279 -7.3384566 5.5664015
1.8304006 -7.4924417 5.5035067
0.10892399 -7.3552032 5.0010157
0.17405061 -7.2860231 3.9275208
0.20169982 -7.3196578 3.4769483
0.22412209 -7.3003564 3.023838
0.24436443 -7.2954235 2.597805
0.26148972 -7.2753301 2.185498
1.8013023 -7.4408965 2.0900884
0.27657792 -7.2708592 1.7939202
0.28870943 -7.2563372 1.411605
1.7949799 -7.3032064 -0.95540184
1.7863722 -7.4828343 6.112802
0.023933453 -7.337945 5.5657969
1.7813801 -7.4908609 5.4942131
0.063726716 -7.3482904 4.9959555
0.12949736 -7.2957559 3.9322646
0.15660937 -7.3126292 3.4730878
0.17952789 -7.3099074 3.0272806
0.19923529 -7.2836008 2.5931108
0.21727215 -7.2911577 2.1898108
1.7551695 -7.4499311 2.0895617
0.23143336 -7.2559223 1.7898507
0.24378388 -7.2461991 1.4093153
1.7485185 -7.3073292 -0.95451963
1.7352501 -7.2295742 -1.3190041
1.7375907 -7.4814525 6.1028485
-0.021098653 -7.340344 5.5676098
1.733182 -7.4921331 5.4872432
0.018616281 -7.3402729 4.9903336
0.084861897 -7.3078561 3.9384317
0.11155757 -7.3017106 3.4675117
0.13462071 -7.3080997 3.0261331
0.1544403 -7.2799768 2.5914345
0.17275688 -7.301929 2.1926861
1.7066236 -7.4483361 2.0861378
0.18663253 -7.2465291 1.7872175
0.19953333 -7.2554088 1.4108418
1.7029738 -7.3150215 -0.95414156
1.6908576 -7.2400851 -1.3190041
1.6901007 -7.4850998 6.0972495
-0.066101864 -7.3360929 5.5645885
1.6823564 -7.481184 5.4715605
-0.026432069 -7.34273 4.9920201
0.039923728 -7.2906337 3.9289439
0.066629156 -7.2887082 3.4610777
0.089640342 -7.2977018 3.0215428
0.10975409 -7.2798452 2.5910993
0.12769817 -7.288487 2.1883733
1.657115 -7.4417181 2.0813973
0.14220323 -7.2494793 1.7876962
0.15507412 -7.2594404 1.4114141
1.6416249 -7.4838581 6.0879178
-0.11107784 -7.3331594 5.5627756
1.632773 -7.4746652 5.4593625
-0.071558177 -7.3498721 4.9970803
-0.0048016342 -7.2757759 3.9208791
0.021926949 -7.2962065 3.4645092
0.04484944 -7.2962666 3.0207777
0.065109 -7.2832079 2.5921052
0.082756415 -7.269979 2.1826227
1.603878 -7.4168587 2.0716527
0.098006457 -7.2715735 1.7929627
0.11049822 -7.2582922 1.4110326
1.5921248 -7.2160606 -1.3109688
1.5925758 -7.4792404 6.076098
-0.15610507 -7.3339329 5.5639839
1.5856967 -7.4789691 5.4552965
-0.1165498 -7.3426795 4.9925823
-0.049522638 -7.2870531 3.9270463
-0.022844974 -7.2971072 3.4649382
7.9537633e-05 -7.2954803 3.0203953
0.020416208 -7.2825284 2.5917697
0.038096849 -7.2607722 2.1797473
1.554971 -7.4105101 2.0671754
0.053308669 -7.2613583 1.7903295
0.065719269 -7.2323308 1.4058807
0.075686641 -7.2197561 1.0352951
1.5597879 -7.3949275 0.527156
1.5474697 -7.3175521 0.15536486
1.5605525 -7.3603759 -0.21279256
1.5523552 -7.2468748 -1.3148117
1.5463374 -7.4873381 6.0748534
-0.20097125 -7.3280582 5.560358
1.5358421 -7.4694219 5.4413562
-0.16178343 -7.3500943 4.9982047
1.528809 -7.4616184 4.867291
-0.094530202 -7.3094983 3.9393806
-0.067535043 -7.2877965 3.4606488
-0.044571508 -7.276865 3.0127449
-0.024243815 -7.2749796 2.5890875
1.5136398 -7.4404006 2.4846447
-0.0064466158 -7.2512918 2.176872
1.5071639 -7.4085674 2.0640149
0.0087387655 -7.2498975 1.7874569
1.498893 -7.3613348 1.6572039
0.021358661 -7.2384877 1.4070256
1.515278 -7.4351668 1.2847767
0.03140714 -7.2250338 1.0360048
1.5064011 -7.3784456 0.89797574
1.4991922 -7.3300805 0.52186775
1.5007333 -7.3180947 0.15517795
1.5083144 -7.3355432 -0.21180309
1.5056564 -7.2456594 -1.3128903
1.4945282 -7.4675121 6.0512137
-0.24574448 -7.3211131 5.556128
1.4887092 -7.4723182 5.4367094
-0.20667027 -7.3415232 4.9931445
1.4846371 -7.4791236 4.8726759
-0.13946258 -7.3131814 3.9417527
1.4619044 -7.4052 3.8029149
-0.11237607 -7.2953739 3.4645092
1.4724317 -7.4653826 3.3624065
-0.089220673 -7.2764544 3.0127449
-0.06882827 -7.2690415 2.5870757
1.4681417 -7.4504805 2.4849558
-0.050872304 -7.241538 2.1739969
1.4609313 -7.4138899 2.0629616
-0.035683703 -7.2371931 1.7843449
1.4546413 -7.3751836 1.658281
-0.023056265 -7.2384825 1.4070256
-0.012907716 -7.2151918 1.0345855
1.4593655 -7.3787827 0.89691013
1.4601982 -7.3694768 0.52402484
1.4573607 -7.3350101 0.1553441
1.4632759 -7.3446603 -0.21180309
1.4570869 -7.2344913 -1.309222
1.4480846 -7.4734674 6.0487251
-0.29050329 -7.3154869 5.5531063
1.4371284 -7.4517388 5.4152184
-0.25176981 -7.3417702 4.9942689
1.4387182 -7.4880924 4.8726759
-0.18435498 -7.3130684 3.9422269
-0.15698189 -7.287322 3.4610777
1.423682 -7.459003 3.3555355
-0.13390048 -7.2776175 3.0135098
