# .PCD v0.7 - Point Cloud Data file format
VERSION 0.7
FIELDS x y z
SIZE 4 4 4
TYPE F F F
COUNT 1 1 1
WIDTH 1478
HEIGHT 1
VIEWPOINT 0 0 0 1 0 0 0
POINTS 1478
DATA ascii
-4.4036579 -8.5749178 3.6964262
-4.4375029 -8.6445332 3.1797481
-4.4178667 -8.6062813 2.6410542
-4.4682779 -8.7082262 2.1591258
-4.4753127 -8.7256861 1.6603936
-4.4786525 -8.7397089 1.1710154
-4.5009298 -8.79074 0.68886542
-15.234624 -19.281513 1.0686172
-4.7825727 -9.3528843 0.21820861
-3.9412148 -4.9953151 -0.037758581
-4.8590837 -9.5147972 -0.30215582
-3.936276 -4.9908462 -0.35092226
-3.919878 -4.9718399 -0.66432321
-3.7862372 -4.7988877 -0.94957113
-4.4878259 -8.6120853 3.1778822
-4.4532042 -8.5456476 2.6307828
-4.5112505 -8.6607256 2.1541712
-4.5324111 -8.7050581 1.6617291
-4.5294442 -8.7067785 1.1703049
-4.5538635 -8.7611866 0.68872631
-4.8421741 -9.3277998 0.21831244
-3.95187 -4.9478755 -0.34959927
-3.8888783 -4.8707509 -0.65399206
-3.7977238 -4.7531776 -0.94511956
-4.3958836 -8.3073092 3.6040514
-4.4823713 -8.4743309 3.13714
-4.4649606 -8.4414139 2.6070797
-4.5601993 -8.6251125 2.1522324
-4.600481 -8.7049789 1.6670712
-4.6263666 -8.7613602 1.1814349
-4.6443105 -8.8027821 0.69422328
-4.9044442 -9.307642 0.21854089
-3.9903178 -4.9336267 -0.3503159
-3.9599605 -4.8978405 -0.66087949
-3.8280602 -4.7313218 -0.94542658
-4.4118743 -8.2151957 3.5757661
-4.5338349 -8.4458303 3.1368291
-4.5175848 -8.4155588 2.6076064
-4.6098037 -8.5909462 2.1507246
-4.6682544 -8.7035217 1.6722463
-3.8850226 -7.2493339 0.98074013
-4.6949391 -8.7679634 0.6937362
-15.595191 -19.007868 1.069182
-4.9642911 -9.2826643 0.2186655
-3.6342368 -6.8041768 -0.21816398
-3.9672577 -4.8457475 -0.65712273
-3.8363531 -4.6825204 -0.94036096
-4.5728421 -8.3944836 3.1281209
-4.5622144 -8.3749733 2.6036561
-4.6666331 -8.5702181 2.1526632
-4.7639923 -8.7526541 1.687271
-4.7406497 -8.7170124 1.183211
-4.7700834 -8.7784348 0.69686741
-15.798991 -19.017099 1.0751339
-5.0230627 -9.2555437 0.21874857
-3.6802051 -6.7896585 -0.2184184
-3.9236877 -4.7296205 -0.95463675
-4.6192064 -8.3571167 3.1246996
-4.6046495 -8.330781 2.5986519
-4.723381 -8.5491152 2.1546021
-4.7974052 -8.6938467 1.1840398
-16.265789 -19.302139 2.3504982
-4.8074803 -8.7192984 0.69450164
-15.899945 -18.901451 1.0740913
-5.0845819 -9.2333059 0.21895625
-3.7174609 -6.7590666 -0.21816398
-3.9049661 -4.6487088 -0.943124
-4.5098066 -8.038949 3.5345912
-4.6713276 -8.3302746 3.1253216
-4.6674757 -8.3234062 2.6052363
-4.780046 -8.5276384 2.1565409
-4.85745 -8.6763763 1.1856974
-4.8940077 -8.7488384 0.69923323
-16.059673 -18.855253 1.0770456
-3.7928286 -6.788641 0.16153294
-3.7754247 -6.7658081 -0.21912518
-4.5645895 -8.0208645 3.5388877
-4.7270522 -8.3097162 3.1284318
-4.7308612 -8.316412 2.6120837
-4.8511057 -8.5312548 2.164942
-17.079933 -19.728918 3.7417672
-4.9140286 -8.6524525 1.1865263
-3.8245518 -6.7478452 0.16111758
-3.8469064 -6.7955785 -0.22084968
-4.7865005 -8.295373 3.1340299
-4.7924075 -8.3056097 2.617878
-4.9018974 -8.4987907 2.1642959
-4.974957 -8.6359043 1.1884208
-3.872802 -6.7281294 0.54149002
-5.2691231 -9.1650209 0.21960005
-3.8671269 -6.7345719 -0.21963404
-3.8863878 -6.7763281 -0.60382044
-3.8762932 -6.7724147 -0.99131918
-4.8445106 -8.2781506 3.138695
-4.8520503 -8.2910347 2.6226184
-4.9574046 -8.474453 2.1658037
-4.9685216 -8.4968605 1.6665703
-5.0348654 -8.617218 1.1900784
-3.9396629 -6.7481761 0.5450387
-17.082251 -19.323683 1.1215767
-3.8957999 -6.6891222 -0.21892728
-11.798684 -13.370333 -0.98446757
-3.9263895 -6.7497687 -0.60358924
-4.7391014 -7.9820518 3.5596542
-4.8990936 -8.2548084 3.1411831
-4.9599442 -8.3573399 2.6531692
-5.0074883 -8.4441643 1.6622299
-17.086246 -19.017252 3.6658304
-5.0942254 -8.5972681 1.1916176
-5.3715224 -9.0724688 0.73541605
-3.9720285 -6.7167511 0.16209367
-3.898643 -6.6005411 -0.21680699
-3.9677312 -6.7255497 -0.60358924
-3.9606192 -6.7269011 -0.99169725
-4.9614134 -8.2441359 3.1486473
-5.0489354 -8.3895674 2.6731851
-5.0786443 -8.4422674 2.1733434
-5.0526013 -8.4022951 1.6600597
-5.1458583 -8.564147 1.1913809
-5.4327374 -9.0487461 0.73618144
-3.9704015 -6.6288056 -0.21853149
-4.020185 -6.7199006 -0.60528475
-4.0328422 -6.7544298 -0.99938482
-5.0257664 -8.2362547 3.1573555
-5.1194129 -8.3897228 2.6831932
-5.1334004 -8.4159489 2.1746359
-5.1025219 -8.3686094 1.6595589
-17.43903 -18.937214 3.6913793
-5.1952105 -8.5273228 1.1906704
-5.4933443 -9.0237627 0.73687726
-3.9653382 -6.5291338 -0.21604368
-4.0701327 -6.7095985 -0.60659486
-4.0701003 -6.7227688 -0.99837667
-5.0882092 -8.2246599 3.1648197
-5.1921115 -8.3926086 2.6942546
-5.1685076 -8.3577147 2.1677425
-5.1579218 -8.343853 1.6608944
-5.2484789 -8.4969749 1.1909072
-5.5575171 -9.0043173 0.73806018
-4.177361 -6.7761173 0.16535424
-4.0299592 -6.5446854 -0.2173724
-4.1086135 -6.6802521 -0.60620952
-5.1582727 -8.2246857 3.176949
-5.2563238 -8.3810244 2.7008388
-5.2207294 -8.3274994 2.1681733
-5.2016916 -8.3003511 1.6585572
-5.2889228 -8.4460964 1.1883023
-5.6274776 -8.9937267 0.74000847
-4.1393785 -6.6231847 0.16223904
-4.0345755 -6.4630222 -0.21547827
-4.1563835 -6.6659145 -0.60721141
-5.2208791 -8.2121296 3.1844132
-5.3117905 -8.3551273 2.7029457
-5.271728 -8.2953081 2.1681733
-17.896509 -18.677799 5.0281987
-5.272614 -8.2999029 1.6649009
-5.6578083 -8.9131298 1.2588711
-5.6905713 -8.9716635 0.74105221
-4.0752249 -6.4398346 -0.21553481
-5.283525 -8.1991138 3.1918776
-5.3572083 -8.3134575 2.7000487
-5.3119512 -8.2463865 2.1638651
-5.3133001 -8.2516441 1.6617291
-5.7156153 -8.8832569 1.2595816
-4.3115625 -6.7062097 0.55610228
-4.232769 -6.591238 0.1627167
-4.1173611 -6.4189148 -0.21567616
-12.925534 -20.173985 -1.8519987
-11.422402 -11.174176 9.6963911
-12.605876 -12.435694 9.5424662
-5.3124266 -8.1339149 3.1791263
-5.3875446 -8.24893 2.6897774
-15.636098 -15.867378 5.4923544
-5.3170738 -8.1441345 2.1455545
-4.3486152 -6.6632924 1.3472126
-4.3722587 -6.7046328 0.95445448
-5.8350949 -8.9546471 0.74550551
-4.1395116 -6.3598509 0.15762857
-4.1730146 -6.4186721 -0.21652429
-13.006179 -20.028236 -1.8459103
-11.501203 -11.113979 9.7052107
-5.4433823 -8.2237616 2.6924109
-5.3863435 -8.1406746 2.1533096
-5.8487511 -8.8428898 1.7951148
-5.8001065 -8.7759991 1.2543718
-4.3176689 -6.5379195 0.54649991
-4.1933212 -6.3568645 0.1581893
-4.2007709 -6.3754177 -0.2159306
-11.587732 -11.060908 9.7207737
-12.770217 -12.292274 9.5519543
-5.4028416 -8.0546932 3.1738391
-5.4534359 -8.1301203 2.6726584
-5.4438062 -8.1188269 2.1563253
-5.9007039 -8.8035603 1.7944471
-5.8892097 -8.793046 1.2619495
-4.3638072 -6.5204234 0.54726535
-4.1983538 -6.280314 0.15692246
-4.2303739 -6.3353901 -0.21545
-11.662847 -10.996637 9.7269993
-5.4136958 -7.9647965 3.1514463
-5.5037608 -8.0973034 2.6729217
-5.4940686 -8.0860786 2.1565409
-5.9597807 -8.781394 1.2655017
-4.3091431 -6.3612142 0.15960152
-11.745115 -10.938852 9.7394495
-5.5055909 -7.9940472 3.176327
-5.5506053 -8.0594072 2.6716049
-5.5286293 -8.0304985 2.1507246
-5.7612314 -8.3714876 1.7206591
-6.0107369 -8.7405691 1.2649097
-4.4587483 -6.4885802 0.54914403
-4.2383304 -6.1747422 0.15557253
-3.5509253 -5.1790848 -0.1775957
-11.81516 -10.869473 9.7420435
-5.5861516 -8.0054197 2.6650207
-5.595118 -8.0212526 2.1574025
-6.0812845 -8.7279644 1.2684618
-4.459147 -6.4046102 0.54434288
-4.1773834 -6.0066214 0.15197968
-3.6094408 -5.1957836 -0.17892443
-11.920227 -10.831843 9.7736883
-5.5857191 -7.9010496 3.1663749
-5.6346097 -7.9702053 2.6647573
-5.6560655 -8.0035181 2.1619263
-6.1479726 -8.7028046 1.8041296
-6.1627831 -8.7302351 1.2742636
-4.4989362 -6.377944 0.54441243
-4.2147365 -5.9816937 0.15200046
-12.332627 -11.162826 8.9641781
-5.6766672 -7.9260707 2.661597
-15.889451 -14.796265 5.353035
-5.7096152 -7.9750147 2.1636496
-6.2024035 -8.6665211 1.8044635
-6.2849703 -8.7883711 1.2883537
-4.5501661 -6.3672633 0.5458737
-4.4430318 -6.2311287 -0.21643947
-13.259947 -11.85498 9.5851622
-14.064949 -12.748006 7.8589187
-5.7313714 -7.8996048 3.1937435
-5.7195287 -7.8832817 2.6589632
-5.7257624 -7.8947721 2.1513708
-6.2624083 -8.6378803 1.8064668
-4.5264492 -6.2480206 0.91999888
-4.5470309 -6.281044 0.54086375
-3.7056375 -5.1300859 -0.17898096
-3.6049371 -5.0053854 -0.78362864
-13.244017 -11.695313 9.5215931
-14.182143 -12.696593 7.880722
-5.7408991 -7.8114467 3.1722839
-13.311207 -12.043036 5.388844
-5.7597938 -7.8371563 2.6552761
-5.8284431 -7.9334664 2.1716201
-6.3082881 -8.589756 1.8044635
-4.5635262 -6.2185283 0.91976207
-4.5795856 -6.2449808 0.54016793
-3.717566 -5.0806308 -0.17804804
-3.7329895 -5.1073189 -0.48899055
-3.6554611 -5.0104194 -0.7879135
-13.87696 -12.340045 6.6088452
-5.7870355 -7.7738094 2.6457949
-5.8729315 -7.8920703 2.1701121
-6.3908877 -8.5912323 1.8129774
-6.4823985 -8.7206049 1.2956947
-4.5767732 -6.1615071 0.53536671
-4.4049463 -5.9366751 0.15355805
-3.789145 -5.1123333 -0.17997044
-3.7601044 -5.0787082 -0.48845106
-3.6755228 -4.9735351 -0.78564501
-3.6633608 -4.9643254 -1.0945411
-13.625631 -11.638803 10.874007
-13.945337 -12.248448 6.6054926
-5.8369489 -7.7412357 2.6468484
-15.343192 -13.600041 5.0550056
-5.905376 -7.8348312 2.1642959
-6.4666219 -8.5825682 1.8194882
-4.6502442 -6.1763372 0.92189336
-3.8390465 -5.1137686 -0.18084683
-3.7774382 -5.0371952 -0.48667851
-3.7095377 -4.9556541 -0.78640121
-3.6377509 -4.8668313 -1.0779465
-13.078899 -11.127818 9.254034
-13.954046 -12.105236 6.5743108
-15.430004 -13.508839 5.0562024
-6.5113859 -8.5325384 1.817318
-4.5198555 -5.93786 0.1550118
-3.8606713 -5.0773854 -0.1803945
-3.7980227 -5.0004249 -0.48536837
-3.7584546 -4.9573054 -0.790308
-3.6461492 -4.8161578 -1.071658
-13.121322 -11.025838 9.2360067
-15.662556 -13.629807 2.9771476
-3.8899231 -5.0512252 -0.18030968
-3.8286333 -4.9770265 -0.48536837
-3.7785304 -4.9207745 -0.78816557
-3.6672442 -4.7827554 -1.0692126
-13.211761 -10.964233 9.2521362
-14.929023 -12.561944 8.0777216
-13.538653 -11.513641 5.3353639
-6.5809631 -8.4077358 1.8078023
-15.685836 -13.481829 2.9657927
-3.9155838 -5.0151005 0.13216709
-3.9258895 -5.0391703 -0.49376869
-3.8171785 -4.9084606 -0.78992993
-3.7025607 -4.7679405 -1.0709593
-13.289 -10.891332 9.2592525
-15.025717 -12.486639 8.0884314
-3.9363606 -4.9784327 0.13183481
-11.971859 -10.220304 -0.86903697
-3.9573529 -5.0157695 -0.49384576
-3.856431 -4.896637 -0.79182029
-3.7542672 -4.7737684 -1.0774225
-15.108479 -12.399484 8.0918741
-13.675238 -11.343576 5.3339262
-13.206327 -11.001389 4.2377591
-6.6601896 -8.2971268 1.8014586
-15.458304 -19.2852 1.7239728
-3.9544475 -4.9493308 -0.48968413
-4.6921687 -3.9575629 -0.64407837
-3.8486717 -4.8255725 -0.78413272
-4.6792512 -3.9438732 -0.95064569
-3.8166118 -4.7922344 -1.0868552
-13.235986 -10.579038 9.1311655
-15.192172 -12.312945 8.0960827
-13.745324 -11.26006 5.3342137
-13.268333 -10.915832 4.2360835
-14.34453 -11.843258 3.6158307
-15.596463 -19.214773 1.7261994
-4.0148435 -4.9621782 -0.49338335
-4.7049012 -3.9191499 -0.64251304
-3.8800783 -4.8041821 -0.78451079
-4.7026024 -3.9144554 -0.95049214
-3.884886 -4.8170109 -1.09786
-13.298575 -10.495988 9.1297426
-13.656993 -10.993264 6.2393589
-13.807454 -11.170088 5.3316259
-15.673751 -12.779783 3.9310472
-15.766644 -19.182678 1.7319747
-8.6003475 -10.497288 -1.0489599
-3.8655212 -4.7265296 -0.77568901
-3.9498699 -4.8365521 -1.1078167
-13.815757 -10.848886 8.341073
-13.730826 -10.914536 6.2423763
-13.424765 -10.771022 4.2435045
-13.5063 -10.875242 3.370641
-4.0158658 -4.856235 -1.1179481
-13.799968 -10.700254 8.2917452
-13.761967 -10.802158 6.2262826
-13.846487 -10.923285 5.2945347
-13.462444 -10.666138 4.2346473
-13.588142 -10.804382 3.3744574
-15.116558 -12.054166 2.7723312
-15.982216 -18.96563 1.7299569
-3.9621136 -4.7251072 -0.78337657
-13.886882 -10.631852 8.3046131
-13.827988 -10.717513 6.2262826
-13.53299 -10.587521 4.2363229
-13.675799 -10.737778 3.3797998
-3.9621391 -4.666677 -0.77770543
-13.613979 -10.124003 10.295055
-14.285921 -10.716916 9.6240625
-13.891425 -10.684808 5.2611814
-13.616908 -10.519123 4.2423077
-13.777113 -10.68133 3.3885772
-13.312785 -10.059137 5.938271
-13.905621 -10.560559 5.2419171
-13.708216 -10.455983 4.2506857
-13.852527 -10.604351 3.3910577
-14.967631 -11.491165 2.7057624
-11.746855 -13.444194 0.37085286
-14.358088 -10.498193 9.5851622
-13.415949 -9.9501724 6.915236
-13.310824 -9.9299421 5.9101067
-13.751948 -10.356488 4.244462
-13.957271 -10.54934 3.4007888
-13.736226 -10.435104 1.6063422
-13.038067 -9.1264925 12.071313
-13.449623 -9.7830477 7.8971248
-13.476749 -9.8676662 6.915236
-13.442809 -9.9005985 5.9416237
-14.05478 -10.488159 3.4088027
-13.906874 -10.408049 2.4907265
-13.776896 -10.333299 1.6036533
-13.509398 -9.7003384 7.8971248
-13.513081 -9.7674694 6.9029956
-14.021427 -10.360169 2.4998105
-13.669783 -9.4296017 11.290095
-14.954288 -10.517241 9.8522463
-13.55546 -9.6720276 6.8941975
-14.104629 -10.258312 3.3901036
-13.723283 -9.3427553 11.286722
-13.616316 -9.5260592 7.8906908
-13.735004 -9.7309999 5.9905758
-13.893014 -9.894022 5.1202931
-14.134614 -10.148103 3.3822803
-15.506896 -11.19087 1.780745
-13.758385 -9.2436171 11.26873
-14.167686 -9.6194286 10.391547
-13.672279 -9.4407921 7.8894043
-14.736755 -10.244338 7.4304938
-13.844639 -9.6816349 6.0123696
-13.963647 -9.8157501 5.1240311
-14.256682 -10.103752 3.3965912
-14.897161 -10.58894 2.6207416
-15.315763 -10.910645 1.7510753
-15.519319 -10.856151 3.681469
-15.51111 -10.906954 1.7657247
-14.121359 -9.3368683 10.272749
-15.527477 -10.720566 3.6677306
-14.463286 -9.5225258 9.3318348
-14.820649 -9.9030752 7.3796182
-14.023862 -9.5845976 2.4356544
-13.118216 -8.3537045 10.573255
-12.02131 -12.147463 9.7282848
-14.517014 -9.4307241 9.3289881
-14.871106 -9.8053389 7.3746452
-15.21722 -10.094632 6.4988708
-14.07338 -9.49228 2.4340932
-14.078433 -9.5171528 1.5824208
-13.961739 -8.8663712 10.036188
-12.144826 -12.122589 9.7678604
-14.91008 -9.7003031 7.3643174
-15.156693 -9.9210958 6.4469018
-15.49263 -10.241714 4.578877
-13.738706 -9.1167459 3.2050188
-14.157728 -9.4232998 2.4386351
-15.439415 -10.31921 0.80755609
-15.267187 -10.223386 -1.0144001
-14.018777 -8.7823524 10.038263
-14.59668 -9.2297554 9.3066921
-15.275846 -9.8657322 6.4717126
-13.76975 -9.0161428 3.1992946
-14.220246 -9.3395128 2.4394867
-15.466622 -10.181301 1.7242796
-15.488263 -10.214931 0.80681753
-15.404537 -10.175151 -0.10955507
-15.332129 -10.131166 -1.0145656
-11.033787 -10.757792 9.8476629
-14.588803 -9.0999508 9.2658939
-13.178128 -12.817127 8.1232901
-15.050632 -9.5309381 7.3754106
-15.307491 -9.7535906 6.4596424
-14.781912 -9.5132885 4.3339906
-13.848723 -8.9469318 3.204828
-15.523792 -10.082954 1.7237234
-15.544788 -10.115891 0.80651337
-15.466681 -10.080439 -0.10955507
-15.394004 -10.0369 -1.0145656
-13.293462 -12.771514 8.1459236
-15.694188 -9.80408 7.6611543
-15.383002 -9.6695099 6.4663482
-13.901705 -8.860734 3.2044463
-15.594589 -9.9934216 1.7247432
-15.611609 -10.023558 0.80677408
-15.529083 -9.9858885 -0.10956101
-15.4511 -9.9395542 -1.01429
-14.102579 -8.5580769 8.889698
-15.459452 -9.6381102 5.4690642
-14.499287 -9.0817261 4.2181301
-13.928389 -8.7580242 3.1981497
-14.976657 -9.4463692 2.5389853
-15.682947 -9.9339924 0.80729538
-15.590908 -9.8909512 -0.10956694
-15.525287 -9.8531218 -1.0151719
-15.836944 -9.3882246 11.171782
-14.787296 -9.0935373 5.2114391
-15.546943 -14.568785 5.8167453
-14.690224 -8.6698313 9.1923628
-15.666485 -14.501294 5.8280702
-14.586427 -8.8889666 4.2114277
-14.494518 -8.8676872 3.3029039
-14.85185 -9.1148243 2.4986749
-18.714399 -11.557403 -1.2143365
-15.293414 -9.0973835 6.3329039
-12.953902 -11.843706 5.7437
-14.716947 -8.8032236 5.1481833
-14.691538 -8.8647976 3.3353415
-14.823662 -8.9727783 2.4846232
-16.368883 -9.9315386 1.7828776
-15.959496 -9.0680971 11.138581
-15.098657 -8.8565588 6.2296357
-13.022099 -11.760178 5.7418342
-14.785534 -8.7215157 5.1533589
-14.873034 -8.8502827 3.3641536
-15.171673 -9.0566978 2.5335917
-18.752108 -11.265176 -1.2077216
-12.354384 -11.216031 -1.2897944
-12.345686 -11.031897 9.4245386
-13.179684 -7.5735855 6.2932553
-14.725373 -8.5165901 6.0539451
-14.76343 -8.5868092 5.1271935
-15.036275 -8.8229427 3.388768
-15.096441 -8.8866062 2.5118752
-14.662121 -8.6516285 1.5852952
-18.779642 -11.125475 -1.2050756
-14.186455 -8.0891457 5.8118677
-14.030436 -12.361607 6.1190867
-14.793406 -8.4831963 5.1194305
-13.844707 -12.197969 5.0374398
-15.069736 -8.7187176 3.3841884
-14.74161 -8.5770235 1.5881695
-18.758751 -10.958161 -1.1993978
-14.223503 -7.9950218 5.8068385
-14.042278 -12.219815 5.0819488
-16.37941 -9.3049183 4.6444674
-15.16132 -8.647974 3.3927748
-14.367624 -12.511753 3.2257977
-14.86843 -8.5084467 2.4563775
-18.943396 -10.906276 -0.12971316
-18.759878 -10.804979 -1.1952084
-14.152722 -7.5882258 9.7446375
-13.31119 -7.3265891 6.2905774
-14.295366 -7.920382 5.8162265
-14.213565 -12.216426 5.1167135
-16.459068 -9.2170496 4.6509309
-15.2372 -8.5677729 3.3979268
-14.446367 -12.425288 3.2262986
-14.897941 -8.4044104 2.452687
-19.014307 -10.792304 -0.12974283
-18.752022 -10.647761 -1.1905228
-13.378634 -7.2571106 6.3012881
-14.308141 -7.8131027 5.8018088
-14.998257 -8.237587 5.1369696
-14.244864 -12.092149 5.1011748
-14.986952 -8.2722816 4.2205238
-14.91873 -8.3163452 1.5904874
-19.110714 -10.69252 -0.12995052
-18.738586 -10.488608 -1.1855617
-4.6618986 -3.9784284 -0.47373125
-17.840883 -9.4644585 9.5897036
-14.296079 -7.6930194 5.7776685
-13.539358 -11.351058 5.7816429
-14.917963 -8.0747366 5.0924029
-14.298832 -11.987782 5.0940638
-15.022076 -8.1718168 4.2162151
-14.345562 -12.031223 4.1301923
-14.600023 -12.248974 3.2267995
-14.994783 -8.238554 1.5931762
-13.414481 -11.282294 0.36410329
-18.664459 -10.297226 -1.176852
-4.6763115 -3.9413955 -0.47272938
-4.7115951 -3.9781721 -0.78337657
-4.6624055 -3.9422183 -1.0831869
-13.605643 -11.273202 8.9021139
-17.960264 -9.3870296 9.6227312
-13.643264 -7.1853857 6.383913
-13.163576 -6.9797778 5.3025665
-13.638765 -11.29262 5.7943945
-15.003566 -8.0024319 5.1047664
-14.396639 -11.920123 5.1027551
-14.412345 -11.937368 4.1282539
-14.696164 -12.176773 3.2314737
-16.919186 -9.1382732 2.7572858
-18.840725 -10.239926 -0.12725052
-18.697464 -10.166292 -1.1749777
-4.7578788 -3.9604676 -0.4785094
-4.666584 -3.8913727 -0.77190822
-13.720175 -11.226834 8.9318104
-14.163589 -7.3487649 6.6061583
-13.30803 -6.9520955 5.3434715
-13.683519 -11.188868 5.7841311
-14.687819 -7.718636 4.9811296
-13.137194 -10.742143 4.6329064
-14.776097 -7.804565 4.1199841
-18.785078 -10.060864 -0.12645535
-18.696125 -10.017423 -1.1710087
-13.782552 -11.137385 8.9277611
-14.145064 -7.2293434 6.576704
-13.399861 -6.8957424 5.3632536
-13.742303 -11.096934 5.7800879
-13.224625 -10.678908 4.6405439
-14.789255 -7.6958261 4.1104088
-14.560788 -11.762062 4.1291156
-13.501679 -10.910419 2.9391603
-16.539997 -8.6729937 2.6779425
-18.694546 -9.8694201 -1.1670949
-14.065642 -11.236244 10.247721
-13.85063 -11.052608 8.9277611
-14.378972 -7.2379627 6.6646843
-15.382957 -12.262206 7.5435882
-13.401585 -6.7929473 5.3471599
-13.230314 -10.550048 4.6197381
-14.826694 -7.6000643 4.1077757
-15.118066 -7.7827687 3.3051937
-13.589179 -10.843973 2.9436677
-16.669416 -8.6108675 2.6902912
-18.814852 -9.7816133 -0.12583821
-18.683886 -9.7176685 -1.1626849
-14.679737 -7.2768087 6.7832661
-15.457908 -12.167587 7.5435882
-13.492746 -6.735415 5.3669415
-16.802794 -8.4391012 5.6447434
-13.350128 -10.512237 4.6389637
-14.832311 -7.48838 4.0965247
-14.60584 -11.505148 4.101542
-14.217264 -7.2340007 2.2873294
-13.855916 -7.0684161 1.4484432
-18.738718 -9.6005669 -1.1624093
-13.607355 -10.583982 7.6176553
-14.783063 -7.2153726 6.8104253
-13.860181 -6.8129196 5.4963627
-16.837948 -8.327775 5.6392803
-13.486728 -10.486379 4.6639838
-14.880588 -7.3985262 4.0972428
-14.055184 -7.0432987 2.2542579
-13.932836 -7.0002513 1.4519664
-18.699217 -9.4359274 -1.1563456
-14.259749 -10.967491 10.2403
-13.601675 -10.446247 7.5784497
-14.748775 -7.0869141 6.7744679
-13.770575 -10.568323 6.6563597
-14.159523 -6.8525095 5.59829
-13.583721 -10.428689 4.6753087
-14.918728 -7.3036661 4.0953279
-13.859191 -10.647868 2.9591932
-14.138083 -6.9766369 2.2606452
-13.938936 -6.8965259 1.4481649
-14.343372 -7.1122155 0.69620645
-14.122491 -10.709117 7.8318729
-14.744373 -6.9737659 6.7526641
-14.143467 -6.737946 5.57549
-16.912102 -8.1076851 5.6303673
-13.707419 -10.3906 4.6958513
-14.956264 -7.2086163 4.0934129
-13.849508 -10.502113 3.8342094
-13.878704 -10.528069 2.9495106
-14.208225 -6.9031658 2.2650452
-13.749693 -10.437767 2.0584531
-13.98278 -6.8117404 1.4483504
-14.19306 -10.626099 7.8347025
-13.786364 -10.317858 4.7011185
-13.899616 -10.406403 3.8303318
-18.603586 -8.8661079 4.0058441
-13.928837 -10.432073 2.9465058
-14.274426 -6.8273878 2.2688775
-13.81189 -10.352013 2.0582163
-14.18771 -6.8041778 1.4652251
-14.470991 -6.9555736 0.69820493
-18.658264 -8.9842539 -0.12288897
-18.608866 -8.964469 -1.1403595
-14.171198 -10.474657 7.7870088
-15.60876 -11.53302 6.3507881
-16.972099 -7.8817873 5.6177158
-14.350354 -10.60708 3.9365325
-14.17651 -10.482409 2.9852359
-14.322318 -6.7426248 2.269871
-15.133913 -11.198506 2.2449393
-14.303026 -6.7518497 1.472828
-18.685026 -8.8563223 -0.12270501
-18.561573 -8.8017759 -1.1341305
-13.527428 -9.896389 10.710841
-13.520312 -9.8586168 6.4164715
-13.726622 -10.012721 5.5598941
-13.957146 -10.180875 4.7163939
-14.219537 -10.376076 3.8831091
-14.562199 -6.7220311 3.1176283
-14.05899 -10.262685 2.9471736
-14.439764 -6.6899881 2.2819357
-15.153431 -11.069706 2.2377167
-14.306259 -6.6463413 1.4689338
-18.713642 -8.7296696 -0.12253886
-18.53018 -8.6480255 -1.1289488
-13.545543 -9.7826118 10.677455
-14.612062 -6.477272 6.6172514
-13.89424 -6.2055569 5.4155583
-13.776232 -9.9199772 5.5552292
-14.01622 -10.092789 4.7153406
-14.317007 -10.313173 3.8923719
-14.507538 -6.589118 3.0972118
-14.401279 -6.5651283 2.2694452
-15.23637 -10.987554 2.2399664
-14.556861 -6.6544743 1.4904444
-14.568413 -6.6751308 0.69685817
-18.730501 -8.5979939 -0.12230149
-18.521193 -8.5058279 -1.1252003
-15.248393 -11.040784 -1.4551803
-13.649982 -9.7096167 8.4395733
-13.678331 -9.7189999 6.4343739
-13.84691 -9.8424196 5.5592723
-14.049578 -9.9864759 4.7058592
-14.372855 -10.220038 3.8904333
-14.631941 -6.5376186 3.1151478
-14.720567 -10.471153 3.0586901
-14.670705 -6.5795274 2.3054974
-15.526769 -11.052792 2.272646
-18.540279 -8.377223 -1.1232158
-15.361275 -10.979481 -1.4594961
-15.97375 -11.211448 8.6236696
-14.176049 -6.123879 5.4956918
-13.896928 -9.7501745 5.5552292
-14.060048 -9.8646212 4.6890039
-14.440089 -10.135022 3.8917258
-14.600784 -6.4165158 3.1000738
-15.607294 -10.966447 2.2745404
-14.924131 -6.6177497 0.70993513
-18.539324 -8.2401886 -1.1200738
-15.204318 -10.726956 -1.4383026
-13.730235 -9.5364323 10.68284
-14.689647 -6.1907091 6.5996556
-14.897469 -10.312491 6.9478059
-13.975245 -9.6777077 5.5626931
-14.152035 -9.8001328 4.6995382
-15.326115 -10.636934 1.3012599
-18.693159 -8.1676903 -0.12105533
-18.531898 -8.1010818 -1.1166009
-14.934394 -10.39986 -1.4067051
-14.269708 -9.7709017 9.8445396
-14.109451 -9.650321 8.6123514
-16.136557 -11.03265 8.6378155
-14.722234 -6.0983367 6.5973601
-14.893391 -10.175064 6.9166565
-13.601568 -5.6786795 5.2455678
-14.262874 -9.7479506 4.7163939
-14.734272 -10.0739 3.9373941
-14.079435 -5.982348 2.9735675
-14.232098 -6.0706878 2.2186315
-13.894584 -9.5104809 2.0077763
-14.234262 -6.0892367 1.4416747
-15.37381 -10.530855 1.2997986
-18.550985 -7.9742074 -1.1147819
-15.068588 -10.356596 -1.4133329
-14.366116 -9.7079763 9.8697691
-13.647954 -9.2088022 3.6319327
-14.089609 -5.8848739 2.968034
-14.346673 -6.0157833 2.2306962
-13.950209 -9.4233789 2.007421
-15.408384 -10.416213 1.2972937
-18.577492 -7.8509026 -1.1134589
-15.046865 -10.206295 -1.405395
-14.353831 -9.5719109 9.8207941
-14.541957 -9.686367 8.8031273
-14.923907 -9.9370232 7.9228144
-15.379711 -10.236645 6.0456891
-15.306562 -10.187957 5.019794
-14.211721 -5.8337235 2.986161
-13.8376 -9.2171965 2.8151233
-14.08679 -5.8054366 2.1847084
-14.333679 -5.9247518 1.4442708
-15.460389 -10.313722 1.2963195
-15.402729 -10.286915 0.38474661
-18.577366 -7.7168479 -1.1105924
-15.054523 -10.077173 -1.4003086
-14.404307 -9.4784021 9.8153524
-14.630969 -9.6165771 8.821125
-14.972006 -9.8295107 6.8679628
-15.344522 -10.077909 6.0074348
-15.359917 -10.08802 5.0168967
-14.239966 -5.7434745 2.9846344
-13.858466 -9.1088305 2.8079448
-14.057003 -5.6925125 2.1746306
-15.400431 -10.130026 2.1980515
-14.078253 -5.7182856 1.4149718
-15.51005 -10.209888 1.2952062
-15.449697 -10.181759 0.38435203
-15.356417 -10.131821 -0.52031982
-15.165172 -6.1906252 -0.90431666
-15.091946 -9.9686747 -1.3980737
-15.010956 -9.7312431 7.9050303
-14.22941 -5.5347662 5.4336638
-15.376559 -9.9644442 5.9959278
-13.876601 -8.9958677 3.6480889
-14.54872 -5.7644687 3.041877
-13.944704 -9.0434742 2.8141217
-14.179965 -5.6412807 2.1882567
-15.46563 -10.037502 2.198525
-14.187982 -5.6616869 1.422482
-15.560692 -10.106921 1.294232
-15.514395 -10.088405 0.38441432
-15.414106 -10.034678 -0.52017844
-15.136958 -9.8655415 -1.3966093
-14.71177 -9.4132051 8.7995272
-15.085208 -9.6410179 6.8650985
-15.007082 -9.5947771 4.8628268
-14.823496 -5.7683587 3.0918691
-13.967541 -8.9370165 2.807611
-15.478427 -9.9113607 2.1916575
-14.080619 -5.5189319 1.4082962
-15.619894 -10.009638 1.2940233
-15.581053 -9.9962597 0.38453895
-15.484639 -9.9458523 -0.52048945
-15.157792 -9.7471313 -1.3929873
-15.124334 -9.5358257 6.8561473
-14.709918 -9.2781267 4.7479982
-14.10735 -8.9015055 3.6797552
-14.883368 -5.6867547 3.0970209
-14.612414 -9.2237587 2.9258051
-14.694505 -5.6381173 2.2568128
-14.104925 -5.4288545 1.407369
-18.498549 -7.1570125 -1.0950472
-15.191216 -9.6373844 -1.3905982
-15.194236 -9.4537849 5.8559742
-14.774762 -9.19279 4.7506318
-14.211447 -8.8457384 3.6926804
-14.841697 -5.5667124 3.0811839
-16.363243 -10.196989 2.2990501
-14.178021 -5.3573399 1.4113559
-14.423018 -5.4643025 0.67070425
-15.26105 -9.5508671 -1.3916
-15.969236 -9.7967472 7.184114
-14.367158 -5.186131 5.4360108
-15.45083 -9.4824286 4.9492111
-14.378633 -8.8278589 3.721977
-14.78898 -5.4436665 3.0632477
-14.228719 -5.2600107 2.1751986
-14.18262 -5.2598572 1.4085743
-18.496105 -6.8963294 -1.0898104
-15.315125 -9.4544287 -1.3912146
-15.965139 -9.6599083 7.1554704
-15.616009 -9.4523869 4.983449
-14.602933 -8.8426533 3.7659221
-14.873807 -5.3714924 3.0739331
-14.374253 -5.2137842 2.1925149
-14.601273 -8.8520994 2.0360749
-16.178335 -5.9033265 0.7489053
-18.307384 -11.120809 0.44495285
-18.501501 -6.7693295 -1.0876606
-15.343041 -9.3421307 -1.3885173
-14.903895 -8.9039068 8.7468843
-14.69214 -8.770442 4.6713581
-14.767585 -8.8189745 3.7943573
-14.883353 -5.2719336 3.0691628
-14.798826 -8.841136 2.9187934
-14.32577 -5.0969515 2.1803081
-14.616962 -8.7394114 2.0307467
-14.32018 -5.1118636 1.415899
-16.202967 -5.7999063 0.74838394
-15.435975 -9.2693701 -1.3917542
-14.390182 -8.4877815 9.5101223
-14.947475 -8.8059444 8.7405853
-16.894342 -9.9489222 8.6636839
-14.700785 -8.6537008 4.6571364
-15.005707 -8.84025 2.948843
-14.35584 -5.0086284 2.1801662
-14.696827 -8.6651926 2.0344172
-14.611593 -5.1150284 1.441582
-16.315546 -5.7275128 0.75194645
-18.462309 -6.4956069 -0.11614191
-18.478636 -6.5049763 -1.0815418
-15.532881 -9.1983595 -1.3953763
-17.095867 -9.9268284 8.7356281
-14.507141 -8.4202814 5.4889841
-14.731913 -8.550745 4.6502886
-14.944787 -8.6777887 3.8122368
-15.052847 -8.7440481 2.9475074
-14.431259 -4.9358244 2.1869793
-14.754011 -8.5773468 2.0350091
-14.595614 -5.0091166 1.436946
-18.222166 -10.61487 0.43805787
-18.471567 -6.371767 -0.11595202
-14.443873 -8.2654943 5.4457541
-14.717956 -8.4223385 4.6294827
-14.990125 -8.5815601 3.810298
-14.852652 -4.9783669 2.2461674
-14.796025 -8.480731 2.0335884
-14.756311 -4.9632702 1.4497412
-14.96747 -5.0488362 0.68690926
-18.206327 -10.456553 0.43612647
-18.498001 -6.2541442 -0.11587488
-18.433168 -6.2358093 -1.0743204
-14.415679 -8.1323509 5.4162083
-15.039096 -8.4875011 3.8094363
-16.735361 -9.4486609 3.2540107
-14.70517 -4.8287711 2.219341
-14.83741 -8.3839226 2.0321674
-14.725019 -4.8523779 1.4437145
-15.060774 -4.9775944 0.6897766
-18.100492 -10.248587 0.43207672
-18.530331 -6.138638 -0.11583927
-18.433172 -6.1100221 -1.0721154
-14.523547 -8.0927315 9.4641151
-14.492408 -8.0555038 6.3581109
-14.397196 -8.0058699 5.3907056
-14.758656 -8.2068672 4.6102567
-15.026035 -8.358984 3.7930648
-14.5894 -4.6917815 2.1974828
-15.069009 -8.3932247 2.0567956
-14.848324 -4.7922115 1.4528936
-15.127151 -4.8967814 0.69142753
-18.01026 -10.052062 0.42844233
-18.539114 -6.0155635 -0.11566125
-18.832392 -10.523855 -0.61013538
-18.42853 -5.9832363 -1.06969
-14.444936 -7.9134922 6.3158617
-14.426879 -7.9068737 5.3835526
-16.767063 -9.1970596 3.2379844
-15.171207 -4.7763686 2.2806582
-14.956251 -4.725914 1.4605892
-17.484318 -9.6063728 1.3915082
-15.231197 -4.8274145 0.69481623
-18.843201 -10.378686 -0.60841089
-17.484869 -9.4477482 8.7821093
-12.975764 -7.0083804 4.8259149
-18.273216 -5.5253839 5.7310019
-14.883719 -8.0388918 4.6181579
-14.940192 -8.0727615 3.7461038
-16.800629 -9.0818157 3.233644
-15.35348 -4.7304068 2.3036523
-15.481518 -4.7876115 1.5089881
-17.548195 -9.5017605 1.3919257
-15.301561 -4.7465949 0.69668436
-18.033817 -9.7769232 0.42611632
-18.838882 -10.226151 -0.60623407
-18.421434 -5.732017 -1.0651146
-14.582999 -7.7579994 6.3341222
-13.081447 -6.9621196 4.8492403
-14.988118 -7.9768753 4.6352768
-14.884286 -7.9249482 3.7198229
-15.553489 -4.7055035 1.5131605
-18.418051 -5.607245 -1.0629097
-16.805172 -8.8195229 3.2134442
-14.116222 -7.4146204 1.9013311
-15.578249 -4.6088505 1.5127895
-15.407503 -4.5729613 0.69890004
-18.073698 -9.5134382 0.42426798
-18.859491 -9.9396696 -0.60292643
-18.415745 -5.4833012 -1.060815
-14.597458 -7.5373349 6.2997499
-13.577121 -7.0134897 5.0007014
-15.166303 -7.8344083 4.6602964
-14.928365 -7.7147989 3.706898
-30.657125 -8.8309755 4.5746589
-14.053861 -7.272192 1.8868858
-15.604322 -4.5126243 1.5126041
-18.412613 -5.3595967 -1.0587202
-14.694199 -7.4734449 6.3215904
-15.196892 -7.7324529 4.6550293
-14.93539 -7.6026769 3.6969886
-16.882265 -8.5974207 3.2077682
-30.666903 -8.6303654 4.5681295
-14.015943 -7.143887 1.8758742
-14.231361 -7.2599449 1.1143616
-17.954794 -5.0901089 0.811553
-18.207779 -9.3004808 0.4247041
-18.835875 -9.6337481 -0.59834659
-18.41634 -5.2383232 -1.0570664
-15.286312 -7.6602383 4.6679344
-16.950563 -8.5016279 3.210773
-14.059513 -7.0577521 1.8758742
-14.17937 -7.1241169 1.1068467
-17.960653 -4.9729133 0.81042343
-18.174297 -9.1432037 0.42260656
-18.898201 -9.5197906 -0.59845966
-15.172379 -4.2151599 -0.86936772
-13.597381 -6.7098198 4.9618254
-15.399639 -7.5991702 4.6882138
-17.006828 -8.3996439 3.2116077
-14.162193 -7.0008335 1.8838073
-17.911745 -4.8412399 0.80686092
-15.212412 -4.125905 -0.87019461
-15.484157 -7.5230861 4.6998019
-13.882572 -6.7569289 1.8410635
-14.03883 -6.8390455 1.0892423
-17.694775 -4.6662831 0.79578245
-15.318523 -4.0539432 -0.87482506
-15.563096 -7.4437528 4.7098098
-14.349083 -6.8692522 2.6935904
-13.857506 -6.6398687 1.8323015
-13.921321 -6.6764221 1.0769264
-17.906912 -4.6048975 0.80403703
-17.919331 -4.6214304 -0.10981618
-16.834801 -7.9254451 6.0889192
-14.364205 -6.7684703 2.6885822
-13.836018 -6.5254898 1.8241317
-13.944884 -6.5827856 1.0756042
-17.888315 -4.4832783 0.80195165
-16.097225 -4.0493174 -0.91638887
-16.87104 -7.8164058 6.0845652
-14.430511 -6.6918201 2.6932564
-13.86589 -6.4358721 1.8228292
-13.942492 -6.4773431 1.0723339
-17.103445 -4.1878562 -0.10449331
-16.359367 -4.0086913 -0.92989439
-14.421964 -6.5806389 2.6840746
-13.962925 -6.3770723 1.8304071
-16.995813 -4.0229263 1.6263692
-13.981974 -6.3916717 1.0723339
-17.091492 -4.061327 0.76393729
-17.110338 -4.0784268 -0.10438056
-16.312756 -3.891324 -0.9258703
-13.926209 -6.2427168 5.8521976
-14.431488 -6.4782948 2.6783988
-16.979425 -3.9091835 1.6224751
-17.037247 -3.9381542 0.76041824
-16.485292 -3.8226962 -0.10042252
-18.254356 -4.2362733 -1.0345757
-13.751521 -6.0633516 5.7630448
-14.705991 -6.4903312 3.5459812
-16.963255 -3.7960112 1.6186737
-16.991882 -3.817991 0.75733364
-18.401768 -8.1521397 0.41807914
-16.256758 -3.6647365 -0.098891526
-18.73036 -8.3094435 -0.57951838
-16.506353 -3.72403 -0.93419409
-13.163119 -5.7077012 5.5016742
-14.672084 -6.368093 3.528317
-16.906443 -3.6745145 1.6110708
-16.818796 -3.6708386 0.7486012
-18.217188 -3.9927065 -1.0296146
-13.210776 -5.632319 5.5070448
-14.122103 -6.0295968 2.5999365
-14.232094 -6.0824332 1.8455628
-16.928671 -3.5707095 1.6110708
-16.889872 -3.5779233 0.75077343
-16.326916 -3.4705789 -0.099051744
-18.226694 -3.8777361 -1.0287876
-13.647237 -5.719698 5.6742506
-14.151561 -5.9397788 2.5986011
-16.921972 -3.460984 1.608382
-14.455604 -6.0792665 1.0938349
-16.865513 -3.4647727 0.74873149
-18.216078 -7.6719522 0.41058192
-17.458527 -3.599303 -0.105781
-18.262856 -3.7684493 -1.0295043
-13.778768 -5.6756821 5.7143512
-14.890635 -6.1397572 3.5530901
-14.2005 -5.858099 2.6009383
-14.514759 -5.9995999 1.0955048
-16.483744 -3.2810636 0.73087561
-17.548925 -3.5058248 -0.10619638
-17.40053 -3.4793377 -0.97967178
-14.245316 -5.77456 2.6026077
-14.523821 -5.8933601 1.8690068
-14.160343 -5.7516284 1.0660715
-16.262236 -3.1333609 0.72018814
-16.904453 -3.2693424 -0.10217308
-17.382341 -3.3649142 -0.97746676
-15.165405 -6.1876326 -1.2660577
-16.553501 -6.5855556 5.8298492
-14.290555 -5.6910563 2.604444
-16.899595 -3.1334896 1.6005009
-14.784641 -5.8997822 1.1103258
-16.26053 -3.0296757 0.71927577
-15.553982 -2.9092679 -0.093900964
-15.562485 -2.9136698 -0.87410843
-14.342652 -5.6100879 2.6076159
-14.451733 -5.6585717 1.8506541
-17.048857 -3.0530803 1.6128324
-16.410572 -2.9535594 0.72509742
-15.560715 -2.8118198 -0.093835689
-18.678228 -7.3435493 -0.56761646
-15.595791 -2.8209689 -0.8749904
-15.047767 -5.7766733 3.555675
-14.284134 -5.492106 1.8248421
-17.032928 -2.9424806 1.6095873
-14.553353 -5.60145 1.0877116
-16.681356 -2.8967392 0.7362628
-15.602304 -2.7205825 -0.093984038
-17.482645 -3.0516028 -0.97978204
-15.101204 -5.6911206 3.5599835
-14.455983 -5.456605 1.8424842
-17.03986 -2.8361149 1.6085674
-14.30283 -5.4045 1.066489
-16.773703 -2.8068612 0.7395646
-18.266378 -6.9131079 0.40570146
-15.685761 -2.6360669 -0.094387554
-17.753109 -2.9866805 -0.99389386
-14.488795 -5.3619041 2.6157959
-17.702116 -2.8158154 2.5702116
-17.04121 -2.7289877 1.6070839
-14.394648 -5.338491 1.0708727
-16.756088 -2.6983275 0.73804402
-16.955324 -2.7425568 -0.10192385
-17.656765 -2.859179 -0.98749942
-14.602978 -5.302515 2.6304867
-17.092077 -2.6296728 1.610329
-14.502128 -5.2773576 1.0764393
-16.760481 -2.5936298 0.73752272
-16.24198 -5.9201255 0.35909823
-17.006416 -2.6438458 -0.10213154
-17.693708 -2.7538564 -0.98860192
-14.637095 -5.2134748 2.6308205
-14.461379 -5.1565766 1.8307623
-17.160097 -2.5324528 1.6152431
-14.593425 -5.2094035 1.0808229
-16.803751 -2.494849 0.73873913
-16.997593 -2.535758 -0.10198318
-17.692497 -2.6425829 -0.98760968
-14.617614 -5.1056833 2.6216388
-14.399953 -5.0352983 1.8190403
-17.104328 -2.4170816 1.6085674
-14.621348 -5.1184435 1.0805446
-16.807863 -2.3901489 0.73826128
-18.243729 -6.3972421 0.40158939
-16.998972 -2.4294343 -0.10190011
-17.733089 -2.5375102 -0.9889878
-14.827765 -5.0772204 2.6536915
-14.424942 -4.9449153 1.8183299
-17.086275 -2.307688 1.6055077
-14.675124 -5.0364037 1.0822146
-16.821222 -2.2868383 0.73821783
-18.24671 -6.2728291 0.40080023
-16.94916 -2.3162839 -0.10151439
-17.721615 -2.4249992 -0.98749942
-15.111953 -5.0711489 2.6989324
-14.480427 -4.8648505 1.8215268
-16.931246 -2.181052 1.5896529
-14.80125 -4.978385 1.0892423
-16.835928 -2.1837106 0.73826128
-18.23464 -6.1438322 0.39969951
-16.770685 -2.1871545 -0.10036318
-17.835169 -2.3291454 -0.99301189
-15.131545 -4.9746332 2.6969292
-14.594891 -4.8038492 1.8321831
-16.943321 -2.0770016 1.5895602
-14.873205 -4.9012098 1.092304
-17.056238 -2.105953 0.74734128
-18.21788 -6.0139666 0.39851576
-16.546616 -2.0547581 -0.098944932
-17.900648 -2.2260742 -0.99587834
-17.545122 -2.0229609 2.5324562
-14.627872 -4.7154245 1.8326567
-16.892448 -1.9656347 1.5836263
-14.951416 -4.8254838 1.0958527
-17.141273 -2.0097508 0.75051278
-16.59367 -1.9572911 -0.099152625
-17.967516 -2.1225214 -0.99885505
-17.552284 -1.9147314 2.5317464
-15.361991 -4.8482232 1.9208677
-17.148649 -1.8888739 1.6065276
-15.003572 -4.7408662 1.0975227
-17.055973 -1.8937318 0.74625516
-16.65307 -1.8607676 -0.09943746
-18.026838 -2.0174544 -1.0014459
-15.436989 -4.7679381 1.9265511
-17.258953 -1.79391 1.6157994
-15.249674 -4.7159147 1.1133875
-17.24016 -1.8071654 0.75381458
-18.247181 -5.6533542 0.39681277
-17.782942 -1.8766135 -0.10611331
-18.088526 -1.9120537 -1.0042021
-17.38657 -1.6994069 1.6267402
-15.345161 -4.6424766 1.1182582
-17.218115 -1.698112 0.75238091
-17.810043 -1.7690456 -0.10620825
-18.087 -1.7997434 -1.0034856
-17.302473 -1.584069 1.617932
-15.412579 -4.5598364 1.1211112
-17.109827 -1.5814893 0.74721092
-18.274923 -5.4170737 0.39594051
-17.870346 -1.6643685 -0.10650495
-18.126534 -1.69142 -1.0050842
-17.381311 -1.4838016 1.6244222
-17.06745 -1.4720116 0.74495178
-18.221392 -5.2797961 0.3940714
-17.769642 -1.5450718 -0.10584627
-18.099766 -1.5769593 -1.0030445
-17.491333 -1.3851415 1.6338794
-18.258255 -5.1692543 0.39417526
-18.006042 -1.454366 -0.10719924
-18.078249 -1.4633741 -1.0013356
-17.714535 -1.2748437 2.5466499
-17.474676 -1.2759778 1.6315615
-17.492729 -1.2926433 0.76276428
-18.268429 -5.0512648 0.39371836
-18.023603 -1.3445251 -0.10725265
-18.597652 -5.1527791 -0.54579157
-18.054031 -1.3499635 -0.99951655
-17.472422 -1.1833954 0.7615478
-17.834976 -1.2204598 -0.10608364
-18.042051 -1.2377939 -0.9984141
-17.569523 -1.0663265 1.6390717
-17.708326 -4.6533322 1.2771147
-17.533199 -1.0794796 0.76389384
-18.022776 -1.1222521 -0.10715771
-18.04233 -1.126631 -0.99802822
-18.015177 -0.98246706 1.6800531
-17.591366 -0.97475177 0.76615298
-18.4842 -4.7464728 0.39641818
-30.508379 -7.8511367 -0.89094698
-18.001053 -1.0132108 -0.99538225
-18.033794 -0.87253505 1.6812584
-17.650856 -4.4073977 1.2689737
-17.701788 -0.87195581 0.7707147
-17.286083 -4.3259306 0.37014675
-19.426432 -0.97050393 -0.11542389
-17.985989 -0.90168953 -0.99422461
-18.020903 -0.76110905 1.6795895
-19.510944 -0.85474479 -0.11589268
-17.981209 -0.79087383 -0.99367338
-30.191645 -1.0895995 2.8132546
-17.235725 -4.0892448 0.36796612
-19.505829 -0.73463547 -0.11583334
-17.992706 -0.68079257 -0.99405926
-29.972799 -0.86617476 4.299583
-16.748098 -3.8559248 1.198765
-16.708134 -3.8559368 0.35619071
-18.111687 -0.5708636 -0.10753155
-17.975588 -0.56971437 -0.99290162
-17.472429 -3.9035494 2.1348238
-16.803568 -3.7602768 1.2010612
-30.163301 -0.74441808 1.3120831
-16.639778 -3.7327738 0.35423854
-17.957783 -0.4588719 -0.99174404
-29.938612 -0.49758986 4.2934799
-30.156809 -0.53280598 2.8086185
-16.915033 -3.6763816 1.2073933
-17.101957 -3.7263868 0.3635841
-18.113468 -3.9567232 -0.5243625
-17.951277 -0.34850195 -0.99124789
-29.927244 -0.31373534 4.2914925
-30.137608 -0.34750471 2.8065789
-16.904085 -3.5655236 1.2050275
-16.018209 -3.38743 0.34009558
-30.065891 -0.39391193 -0.178432
-15.258576 -3.2351348 -0.44113395
-17.959066 -0.23842797 -0.99157864
-29.921677 -0.1300692 4.2904992
-30.12822 -0.1625182 2.8055589
-16.928577 -3.4623346 1.2052362
-30.148916 -0.18894023 1.3110839
-30.079742 -0.20950724 -0.17850322
-17.430239 -3.5839579 -0.50327265
-17.964186 -0.12825723 -0.99179918
-29.915974 0.05351859 4.2896476
-30.106745 0.02233189 2.803519
-16.921125 -3.3527749 1.2032183
-30.139517 -0.0039450931 1.3106494
-16.002678 -3.1795013 0.3389118
-30.071461 -0.024930011 -0.17844981
-17.256815 -3.4380734 -0.49764681
-17.953651 -0.018017614 -0.99119276
-29.913101 0.23706286 4.2893634
-30.107037 0.20706983 2.8036118
-16.917866 -3.2443764 1.2015483
-15.974759 -3.0721879 0.33791494
-17.249121 -3.3266335 -0.49682698
-17.916481 0.091954648 -0.98915315
-29.910093 0.42058781 4.2892218
-30.086283 0.39155304 2.8018501
-16.879583 -3.1297789 1.197443
-16.017883 -2.9786804 0.33843413
-30.054504 0.34392333 -0.17836079
-15.53482 -2.8972661 -0.44692943
-17.914581 0.20187514 -0.98909807
-17.23098 -3.0794871 2.0872252
-30.071367 0.57592285 2.8007376
-16.932838 -3.0323036 1.1998783
-17.061224 -3.0645154 0.36007431
-18.583801 0.32671356 -0.11029684
-15.594605 -2.8095129 -0.44814506
-17.891043 0.31141084 -0.9878853
-29.884869 0.78712988 4.2866669
-30.02347 0.75931877 2.796658
-16.959972 -2.9298768 1.2005047
-16.960508 -2.939116 0.35756141
-18.580448 0.44071177 -0.1102909
-15.637156 -2.7182243 -0.44888008
-17.74106 0.41770402 -0.97972691
-30.000334 0.94296199 2.7949891
-16.930397 -2.8178957 1.1971647
-16.834249 -2.8109522 0.35452929
-18.576395 0.55468112 -0.11028497
-17.137266 -2.8707736 -0.49142727
-16.999613 0.50462961 -0.9389348
-29.831415 1.1521994 4.2807055
-29.953188 1.12549 2.7911875
-16.981844 -2.7194808 1.1996
-16.926201 -2.7196605 0.35610765
-18.572641 0.66865325 -0.11028497
-17.058832 -2.7501349 -0.48868504
-16.97624 0.60821277 -0.9378323
-29.814884 1.3348213 4.279428
-29.887028 1.3066921 2.7857172
-16.862146 -2.5942969 1.1899977
-17.181684 -2.652669 0.36113349
-18.559196 0.78222126 -0.11023156
-17.191948 -2.6634705 -0.49202096
-16.994137 0.71328676 -0.93904507
-29.796247 1.5172335 4.2780085
-17.020657 -2.5058038 2.0514674
-29.837675 1.4880176 2.7819157
-16.786953 -2.4773848 1.1835961
-17.092804 -2.531667 0.35893208
-18.549053 0.89584243 -0.1102019
-17.380007 -2.5835061 -0.49694005
-16.979467 0.81706744 -0.93849379
-29.777483 1.6995237 4.276731
-29.818041 1.670513 2.7809885
-16.793936 -2.3732185 1.1830394
-17.158501 -2.4339008 0.35999125
-29.763391 1.620557 -0.17688321
-17.379698 -2.4745612 -0.49648771
-16.979118 0.9215067 -0.9387694
-29.767481 1.8822653 4.2768731
-17.117043 -2.3057594 2.0595188
-29.759529 1.8504755 2.7765381
-16.820045 -2.2717304 1.1838744
-2.4111903 0.14781794 0.10505006
-17.153297 -2.3258858 0.3595759
-29.778839 1.804724 -0.17703749
-17.495583 -2.3816273 -0.49937132
-16.986101 1.0264542 -0.93948603
-17.530725 -2.2520549 2.1075909
-29.723774 2.0314124 2.774313
-2.4261866 0.16368593 0.10574518
-29.750244 1.986277 -0.17693661
-17.557447 -2.2804117 -0.50072831
-2.3980296 0.1596842 -0.13268456
-2.3697414 0.15738507 -0.24919946
-29.762871 2.2489827 4.2798538
-2.6590931 0.19812974 0.24829924
-16.855568 -2.0662441 1.1845007
-2.4181621 0.17805611 0.10544107
-2.3626833 0.17231272 -0.014057848
-17.597895 -2.1759503 -0.50149161
-2.3272953 0.16932349 -0.12882584
-2.3518682 0.17069866 -0.24742544
-2.3406353 0.17070475 -0.36457023
-30.160822 -3.4882259 5.1407762
-29.754429 2.4320457 4.2807055
-17.542246 -2.0350401 2.1058147
-2.4216201 0.19538395 0.22623232
-17.180059 -1.9991014 1.2064191
-2.3921268 0.1909034 0.10435494
-16.992611 -1.986308 0.35538077
-2.3356628 0.18475641 -0.013903561
-17.576168 -2.0638504 -0.50050217
-2.3142679 0.18265757 -0.12816435
-2.3230155 0.18294001 -0.2445035
-2.3218126 0.18366082 -0.36180717
-29.727114 2.6135294 4.2790022
-17.576118 -1.9297488 2.1084197
-2.4015286 0.20860195 0.22447067
-17.378418 -1.9141822 1.2195005
-2.3809566 0.20472176 0.10392049
-16.998518 -1.8813461 0.35525617
-2.3045943 0.1965352 -0.013725539
-2.3081291 0.19643086 -0.12788872
-2.3010387 0.19542293 -0.24231204
-2.3157191 0.19748391 -0.36103967
-2.4096003 0.22675331 0.34703818
-17.593554 -1.8224813 2.1091301
-2.3863237 0.22204205 0.22317262
-17.252909 -1.7932818 1.2098982
-2.3199651 0.21382566 0.10131379
-17.465164 -1.8245877 0.36476788
-2.2953784 0.20994356 -0.013678066
-17.757244 -1.8645011 -0.50496888
-2.296937 0.20968187 -0.12733749
-2.2918727 0.20881623 -0.24147721
-2.3075755 0.21105915 -0.35996515
-2.3425324 0.21466869 -0.48586348
-30.035425 -2.9145699 5.1093912
-2.4022539 0.24094136 0.34618655
-17.609346 -1.7149762 2.1097221
-2.370054 0.23520513 0.22178185
-17.292379 -1.6902003 1.2119161
-2.312644 0.22746991 0.10105312
-17.361607 -1.7061446 0.36237955
-2.282104 0.22285751 -0.013606857
-17.836988 -1.762291 -0.50691956
-2.2856693 0.22280295 -0.12678625
-2.2846093 0.22229707 -0.24085107
-2.2905016 0.22367756 -0.35750908
-2.3323991 0.22817999 -0.48404303
-2.3918715 0.25473332 0.34490913
-17.690737 -1.6133882 2.1182473
-2.3576739 0.2485946 0.22076194
-17.243813 -1.5786985 1.2078108
-2.2794082 0.23833115 0.099662878
-17.17363 -1.5813409 0.35824674
-2.2796991 0.23675275 -0.013600923
-17.969893 -1.6641498 -0.51039684
-2.2852523 0.23692633 -0.12684137
-2.2792451 0.23590145 -0.24043366
-2.2841716 0.23721723 -0.35674158
-2.3114736 0.2404604 -0.47999752
-29.99721 -2.5396974 5.0972047
-2.3932145 0.26973736 0.34533495
-17.747793 -1.508847 2.1239305
-2.3471982 0.26206201 0.21992747
-17.219381 -1.4699777 1.2054449
-2.2620153 0.25055304 0.098967761
-2.2752216 0.25040808 -0.013583121
-2.2698605 0.2494171 -0.12606962
-2.2688572 0.24890608 -0.23949446
-2.2777619 0.25068769 -0.35597405
-2.2953532 0.2530292 -0.4769634
-2.3915143 0.28441676 0.34533495
-17.755728 -1.3998421 2.1238122
-2.3406019 0.27587646 0.21946388
-17.282772 -1.3686253 1.209272
-2.2485278 0.26303485 0.098446421
-2.2716556 0.26413286 -0.013571252
-2.2682874 0.26334 -0.12606962
-2.2662995 0.26270834 -0.23939011
-2.2673471 0.26363191 -0.35459253
-2.272357 0.26461634 -0.47251338
-2.2859607 0.27024522 -0.72048295
-30.027102 -2.1714654 5.0973716
-2.3848131 0.29847082 0.34462523
-2.3368888 0.28998768 0.21927845
-17.293829 -1.2627724 1.2094808
-2.2379475 0.27572712 0.098055415
-2.2689996 0.27794492 -0.013565319
-2.2646468 0.27701053 -0.12595937
-2.2636576 0.27648854 -0.23928575
-2.2598019 0.27681825 -0.35367149
-2.2677743 0.27819654 -0.47190654
-2.2760756 0.28082794 -0.59395081
-2.2700539 0.28249869 -0.71600229
-2.3907883 0.31412977 0.34576073
-2.3360529 0.3044498 0.21937117
-17.383865 -1.1621587 1.2152561
-2.2272964 0.2882995 0.097664408
-2.2523744 0.28994691 -0.013476307
-2.2609239 0.29064631 -0.12584913
-2.2648778 0.2907528 -0.23959881
-2.2580609 0.29067892 -0.35367149
-2.2689385 0.29248175 -0.47251338
-2.2733495 0.29466397 -0.59370011
-2.2815261 0.29815346 -0.72018421
-30.056408 -1.8031185 5.098206
-2.3996027 0.33027816 0.34732208
-2.3380871 0.31931674 0.21974204
-17.369759 -1.0542023 1.2137948
-2.2215257 0.30142319 0.097490631
-2.2327151 0.30135414 -0.013369493
-2.2581084 0.30438024 -0.12579399
-2.2640369 0.30477703 -0.23970318
-2.2542763 0.30426431 -0.3533645
-2.2612782 0.30561119 -0.47129971
-2.2695801 0.30834678 -0.59319866
-2.278708 0.31201756 -0.71988553
-2.3936119 0.3444317 0.34675431
-30.075504 -1.6296537 3.5915477
-2.3518548 0.33590949 0.22122553
-2.2176561 0.31476775 0.097403742
-2.2159715 0.31295061 -0.013280482
-17.995016 -1.0002688 -0.50971836
-2.2542207 0.31795108 -0.12568375
-2.2621241 0.31866315 -0.23970318
-2.2445393 0.3169851 -0.35213646
-2.2545121 0.31879482 -0.47028834
-2.2638118 0.32172203 -0.59219581
-2.2710824 0.32518196 -0.71809328
-29.614054 4.4892788 5.822155
-30.039833 -1.4324068 5.0920296
-2.3875377 0.35852414 0.34618655
-2.3694456 0.35327047 0.2230799
-18.361856 -0.88840759 1.2822639
-2.2137065 0.32807618 0.097316846
-2.2041168 0.3250826 -0.013221141
-18.003809 -0.8899827 -0.50980318
-2.2542031 0.33206776 -0.12579399
-2.2571745 0.33210298 -0.23939011
-2.2464623 0.33132809 -0.35275048
-2.2486382 0.33204997 -0.46947926
-2.2608376 0.33546436 -0.59194511
-2.2681005 0.33896989 -0.71779454
-2.3970287 0.37500304 0.34788981
-2.3731365 0.36871967 0.22363621
-18.547361 -0.78334379 1.2948583
-2.209677 0.34134802 0.097229958
-2.1941738 0.33738488 -0.013173669
-17.983965 -0.77841604 -0.50909638
-2.2471886 0.34513518 -0.12551838
-2.2511621 0.34534329 -0.23897269
-2.2473171 0.34555644 -0.35321099
-2.2446225 0.34554312 -0.4690747
-2.2587366 0.34933028 -0.59194511
-2.263149 0.35243976 -0.71689844
-30.026573 -1.0626526 5.0871882
-2.409338 0.39208886 0.35001889
-30.034912 -1.0734452 3.5837331
-2.3944199 0.3870877 0.22586145
-18.688398 -0.67445362 1.304391
-2.207541 0.35489991 0.097229958
-2.1861377 0.34989351 -0.013138064
-17.996393 -0.66835064 -0.50932258
-2.2391129 0.3579714 -0.12518764
-2.2509649 0.3594633 -0.2391814
-2.2441788 0.35918304 -0.3530575
-2.24246 0.35930935 -0.4690747
-2.2536833 0.36272159 -0.59119296
-2.2637701 0.36677745 -0.71779454
-29.58156 5.0430188 5.8330312
-2.4234793 0.40966973 0.35243183
-30.040934 -0.88913423 3.5837331
