# .PCD v0.7 - Point Cloud Data file format
VERSION 0.7
FIELDS x y z
SIZE 4 4 4
TYPE F F F
COUNT 1 1 1
WIDTH 1488
HEIGHT 1
VIEWPOINT 0 0 0 1 0 0 0
POINTS 1488
DATA ascii
-3.0065031 3.7990057 -1.0006522
-3.637378 3.0784163 -1.0887517
-2.6211588 3.3168423 -1.0948853
-3.0171361 2.5489726 -1.1109631
-2.226038 2.8229239 -1.1252319
-2.603848 2.1943676 -1.1433249
-1.8974324 2.4131286 -1.132495
-2.2603266 1.9001503 -1.1584201
-1.6489661 2.1039259 -1.1423905
-1.9623847 1.645597 -1.1563554
-1.454556 1.864575 -1.1554441
-1.741659 1.4558495 -1.1661178
-1.2975072 1.6710606 -1.1707929
-1.5650657 1.3031394 -1.1805563
-1.1725967 1.5189255 -1.1939358
-1.4224762 1.1793774 -1.2013521
-1.059833 1.382809 -1.2131457
-1.2686663 1.0473777 -1.1943933
-0.93178463 1.2263443 -1.1959754
-1.1715524 0.96171421 -1.2252233
-0.83082068 1.1046282 -1.1947647
-9.3068628 11.900999 -0.83408809
-9.2480326 7.9640455 -0.94337797
-5.1015248 6.5211458 -0.86875445
-3.9345057 5.0329947 -0.99239856
-4.3885145 3.7672281 -1.0260667
-2.9819303 3.8158386 -1.0002477
-3.6110179 3.0943336 -1.0865242
-2.6049266 3.3382053 -1.0966403
-3.0131435 2.5774493 -1.1152954
-2.1992936 2.8244815 -1.1204525
-2.582402 2.2035344 -1.1398236
-1.8814392 2.4232435 -1.1318028
-2.2075088 1.8789865 -1.1372384
-1.6394024 2.1183674 -1.1447483
-1.9501663 1.6558372 -1.1551208
-1.4408947 1.8706177 -1.1536882
-1.7306564 1.4647847 -1.164747
-1.2861646 1.6776017 -1.1698246
-1.5577018 1.3132757 -1.1810578
-1.1627399 1.5254166 -1.1934075
-1.4152129 1.1880834 -1.2013521
-1.0414242 1.3761981 -1.2017171
-1.2671827 1.0592943 -1.1990933
-0.92661226 1.2351977 -1.1990421
-1.1698159 0.97236443 -1.2296238
-0.81996793 1.1042387 -1.1888793
-1.0737207 0.88711542 -1.2523097
-9.2013216 11.915996 -0.83116651
-9.1914768 8.0140886 -0.94260728
-5.0535121 6.5420933 -0.86739779
-3.9053612 5.0593886 -0.99285907
-4.3326173 3.7656646 -1.0183808
-2.9584606 3.8340635 -1.0002477
-3.6081636 3.1304874 -1.0914246
-2.5719869 3.3380225 -1.0913752
-2.9812632 2.5820243 -1.1093384
-2.1726146 2.8258176 -1.1156732
-2.5566378 2.2088025 -1.1344125
-1.8653935 2.433253 -1.1311105
-2.2022848 1.8979658 -1.1405251
-1.6246985 2.126195 -1.1435695
-1.9385873 1.6665838 -1.1542978
-1.4283018 1.8779933 -1.1528102
-1.7324427 1.4846371 -1.1720581
-1.2695098 1.6770904 -1.1640142
-1.5575105 1.3295493 -1.187076
-1.1497843 1.5277735 -1.1897094
-1.408535 1.1972877 -1.2018971
-1.0373809 1.388479 -1.2068601
-1.2594239 1.0660042 -1.1979183
-0.91478503 1.2351476 -1.1935222
-1.1662076 0.98152709 -1.2321383
-0.81541348 1.1122999 -1.1921489
-1.0614132 0.88796121 -1.2442863
-9.0989742 11.934116 -0.82852054
-9.1189594 8.049881 -0.94021821
-5.014482 6.5745597 -0.86760652
-3.7143145 4.8734183 -0.95187372
-4.2798629 3.7661598 -1.0113937
-2.9289443 3.8443542 -0.99822497
-3.5903521 3.1538544 -1.0918701
-2.5385618 3.3367913 -1.0858594
-2.9747732 2.6085191 -1.1128584
-2.1477332 2.8292136 -1.1117899
-2.5423234 2.223824 -1.1340942
-1.8430673 2.4349284 -1.1266111
-2.1800759 1.9022622 -1.1350471
-1.6154985 2.1412623 -1.1463203
-1.9283249 1.6784474 -1.1542978
-1.4237654 1.8960621 -1.1585171
-1.7179258 1.4905758 -1.1684026
-1.2612907 1.6876519 -1.165951
-1.5565233 1.345304 -1.1925926
-1.1383629 1.5320736 -1.1875963
-1.3998911 1.204814 -1.2008071
-1.0273805 1.3928368 -1.2051457
-1.2534738 1.0742383 -1.1985058
-0.90718907 1.2407373 -1.1935222
-1.1613469 0.9896732 -1.2333956
-0.80546838 1.112992 -1.1875713
-1.0519729 0.89109278 -1.239606
-9.0039587 11.961004 -0.82653606
-9.0515537 8.0897369 -0.93836862
-4.981226 6.6147375 -0.86885875
-3.7698998 5.0098152 -0.97397816
-4.2500572 3.7864547 -1.0098215
-2.9011798 3.856775 -0.99680901
-3.5490789 3.1563892 -1.0851879
-2.5180397 3.3523049 -1.0858594
-2.944314 2.6139407 -1.1074431
-2.1291883 2.8408113 -1.1111926
-2.5350175 2.245038 -1.136959
-1.8247224 2.4416823 -1.1245344
-2.172549 1.9193012 -1.1372384
-1.6050762 2.1548216 -1.1482852
-1.9159385 1.68844 -1.1530633
-1.4019378 1.8910488 -1.1501762
-1.710084 1.5022628 -1.1693164
-1.2483143 1.691839 -1.16353
-1.5391244 1.346853 -1.1855714
-1.1209056 1.5280757 -1.1791437
-1.3918402 1.2128301 -1.200262
-1.0178487 1.3977877 -1.2040029
-1.2456363 1.0808486 -1.1973308
-0.89909673 1.2456399 -1.1929089
-1.1517196 0.99373221 -1.2296238
-0.80390126 1.1253005 -1.1954187
-1.0447921 0.89607847 -1.2376002
-8.8803682 11.948709 -0.82190561
-8.9810448 8.1263933 -0.93621069
-4.9334245 6.6356001 -0.86760652
-3.7443929 5.0399914 -0.97535968
-4.2077341 3.7953148 -1.0052799
-2.8692858 3.8634965 -0.99397719
-3.5405121 3.1878912 -1.088529
-2.5020361 3.3739128 -1.0878652
-2.9246399 2.6287401 -1.1060892
-2.1151235 2.8584254 -1.1129848
-2.5247235 2.2637146 -1.1385504
-1.8141621 2.4588723 -1.1273034
-2.1648946 1.9363192 -1.1394296
-1.5831078 2.1527767 -1.1419975
-1.9116629 1.7056251 -1.1567669
-1.4003906 1.9133911 -1.1585171
-1.7088099 1.5198212 -1.1747997
-1.2379099 1.6994666 -1.16353
-1.5347166 1.3597138 -1.1885805
-1.1075245 1.5294231 -1.1749173
-1.3837435 1.2207927 -1.1997169
-1.0025469 1.3946779 -1.1960028
-1.2365491 1.0863349 -1.1949807
-0.891895 1.2517766 -1.1935222
-1.1385723 0.99464053 -1.2220801
-0.7974174 1.1308302 -1.1960727
-1.0342211 0.89808428 -1.2315826
-8.7584496 11.936961 -0.81738538
-8.9170446 8.1685505 -0.93474644
-4.8814349 6.6505127 -0.86562377
-3.7046313 5.05092 -0.97305715
-4.1850944 3.8217256 -1.0054545
-2.8472631 3.8833988 -0.99458402
-3.5122392 3.2016745 -1.0858561
-2.4795716 3.3868582 -1.087113
-2.9091673 2.6472836 -1.10636
-2.092478 2.864414 -1.1102965
-2.5086803 2.277252 -1.1375955
-1.797936 2.4684408 -1.1266111
-2.1536629 1.9501913 -1.1397947
-1.5785123 2.1743562 -1.1482852
-1.8984561 1.714879 -1.1551208
-1.3775738 1.9066538 -1.1492982
-1.6868931 1.5189686 -1.1661178
-1.2259264 1.7048992 -1.1620774
-1.5263447 1.3691051 -1.1885805
-1.0907129 1.525829 -1.166993
-1.3662224 1.2203242 -1.1909957
-0.99159592 1.3974568 -1.1931458
-1.2334881 1.0971286 -1.1985058
-0.88283437 1.2552874 -1.1916822
-1.1312828 1.0005776 -1.2208228
-0.79608214 1.143774 -1.204574
-1.0292494 0.90490425 -1.2322513
-8.6481409 11.939533 -0.81391251
-8.8470173 8.2048054 -0.93266565
-4.8201122 6.6521525 -0.86197138
-3.6724107 5.0719552 -0.97275013
-4.16012 3.8459961 -1.0051051
-2.8182135 3.8936563 -0.99276352
-3.4846475 3.2158921 -1.083406
-2.4502378 3.3902397 -1.0833523
-2.8928692 2.6650841 -1.10636
-2.0625825 2.8601699 -1.1037248
-2.4883783 2.2868288 -1.1347308
-1.7854946 2.4832349 -1.1283417
-2.1402838 1.962111 -1.1390643
-1.5603203 2.177274 -1.1447483
-1.8831902 1.7221899 -1.1522403
-1.3736746 1.926043 -1.1558832
-1.6755691 1.5274929 -1.164747
-1.213923 1.7102487 -1.1606247
-1.5095892 1.3708837 -1.1820608
-1.0823091 1.5338802 -1.1680496
-1.3580871 1.2281219 -1.1904505
-0.98017788 1.3994817 -1.1897172
-1.2255304 1.1035936 -1.1973308
-0.87646663 1.2626272 -1.1935222
-1.1146935 0.99816179 -1.2095072
-0.79804474 1.1617324 -1.2183069
-1.0170124 0.90526962 -1.2242279
-8.5526505 11.961508 -0.81181782
-4.7705255 6.6694694 -0.86040604
-3.64237 5.0960011 -0.97305715
-4.1148767 3.8512647 -0.99986482
-2.7942693 3.9108753 -0.99276352
-3.4634249 3.2358818 -1.0829605
-2.4215181 3.3941774 -1.0798422
-2.8806858 2.6867237 -1.1079847
-2.0449939 2.8727717 -1.1037248
-2.4680531 2.2962425 -1.1318662
-1.7783693 2.5056198 -1.1335334
-2.1002285 1.949242 -1.124091
-1.5495867 2.1905603 -1.1467133
-1.8725876 1.7337126 -1.1522403
-1.3607963 1.9329661 -1.1550052
-1.6609358 1.532919 -1.1610914
-1.2034062 1.717665 -1.1606247
-1.5030599 1.3818772 -1.1835654
-1.0757885 1.5446727 -1.1712193
-1.3492892 1.2352996 -1.1893604
-0.97203904 1.4061446 -1.1902885
-1.2169417 1.1094569 -1.1955683
-0.87004197 1.2699361 -1.1953621
-1.1091241 1.005505 -1.2101358
-1.0103338 0.91049725 -1.2228907
-8.4739132 12.006419 -0.81132168
-4.7329545 6.7034898 -0.86103219
-3.6144507 5.1230989 -0.97397816
-4.0840206 3.8696685 -0.99811798
-2.7673981 3.9239454 -0.99175215
-3.4328809 3.2470236 -1.0796194
-2.3911707 3.3955164 -1.07558
-2.8606465 2.7010443 -1.1066308
-2.0377531 2.9001019 -1.1094003
-2.4546072 2.3119929 -1.1321845
-1.76027 2.5126426 -1.1318028
-2.104511 1.977391 -1.1328559
-1.5355899 2.1992733 -1.1463203
-1.8672341 1.750156 -1.1555324
-1.3468595 1.938328 -1.1532491
-1.6573482 1.5485469 -1.1652039
-1.1928442 1.7250166 -1.1606247
-1.4945525 1.3910738 -1.1835654
-1.0653285 1.5498452 -1.1701627
-1.3392246 1.2412758 -1.18718
-0.96200526 1.4100487 -1.1885743
-1.2142739 1.1207449 -1.1996808
-0.864003 1.2778679 -1.1978154
-1.1040795 1.0133432 -1.2113931
-0.7862525 1.175211 -1.2222306
-1.0036294 0.91567701 -1.2215534
-8.3846731 12.036068 -0.80983335
-4.6951451 6.7372999 -0.86165828
-3.581254 5.1427474 -0.97351766
-4.0481205 3.8830676 -0.99514848
-2.7483046 3.9480858 -0.99357265
-3.4164135 3.2713974 -1.0807331
-2.3725014 3.4133041 -1.0765829
-2.8405402 2.7152202 -1.1052769
-2.0188324 2.9109821 -1.1088029
-2.4444914 2.330936 -1.1340942
-1.7416182 2.5187659 -1.1297262
-2.0984092 1.9960413 -1.1361427
-1.5189358 2.2041111 -1.1439624
-1.85051 1.7559342 -1.1518288
-1.3278265 1.9361819 -1.1471032
-1.6413532 1.5525745 -1.1606345
-1.1851965 1.7366395 -1.16353
-1.4885075 1.4025912 -1.1855714
-1.0524621 1.5514343 -1.1664647
-1.3254693 1.2437329 -1.1817293
-0.95333529 1.4159249 -1.1885743
-1.2079655 1.128727 -1.2002683
-0.85176218 1.2765751 -1.1916822
-1.1006895 1.0227455 -1.2145363
-0.78027719 1.1819072 -1.2241925
-0.99416834 0.91828603 -1.2168732
-4.6582265 6.7725372 -0.86249316
-3.5563476 5.174397 -0.97535968
-4.005146 3.8893127 -0.99043214
-2.7279098 3.970525 -0.99498856
-3.406076 3.3017981 -1.0838515
-2.3487749 3.4238057 -1.0753293
-2.8058403 2.7151933 -1.0982369
-2.0020111 2.9248898 -1.1094003
-2.4396918 2.3551087 -1.1385504
-1.7298324 2.5348296 -1.132149
-2.0854516 2.0082335 -1.1357776
-1.5033145 2.2103481 -1.1423905
-1.8443019 1.7716753 -1.1547093
-1.3128997 1.9398284 -1.1444693
-1.6343657 1.5650773 -1.1624622
-1.1745183 1.7438791 -1.16353
-1.4798734 1.4116981 -1.1855714
-1.0452845 1.5613905 -1.1691061
-1.3147737 1.2489554 -1.179004
-0.94417524 1.4210643 -1.1880028
-1.2004292 1.1355616 -1.1996808
-0.8439132 1.2817774 -1.1916822
-1.0881623 1.0236186 -1.2076213
-0.77631396 1.1917439 -1.229424
-0.98851514 0.92436886 -1.2168732
-8.3661366 8.2504005 -0.90823537
-4.6165833 6.8009925 -0.86249316
-3.528414 5.2018452 -0.97643423
-3.9622481 3.8951774 -0.98571575
-2.7056942 3.9904306 -0.99579763
-3.3718364 3.3089788 -1.0793966
-2.307642 3.408493 -1.0660528
-2.7939408 2.7370739 -1.1001323
-1.9824239 2.9347463 -1.1085042
-2.4157033 2.3607581 -1.1340942
-1.7069093 2.5345016 -1.1273034
-2.0770895 2.0248909 -1.1379688
-1.4922861 2.2233484 -1.1443554
-1.832743 1.782323 -1.1542978
-1.2994753 1.9456062 -1.1431522
-1.6387821 1.5886971 -1.172515
-1.1657332 1.7539676 -1.1654668
-1.4599816 1.409934 -1.1765443
-1.0333444 1.5642327 -1.1664647
-1.3113155 1.261067 -1.1828195
-0.93408811 1.424772 -1.1862886
-1.1946079 1.1440253 -1.2008559
-0.83259028 1.2816327 -1.1867757
-1.0812979 1.0297397 -1.2069926
-0.76735079 1.1939391 -1.2268082
-0.97904462 0.92683834 -1.2121929
-8.3188829 8.3051014 -0.90862072
-4.5598216 6.8068814 -0.85967553
-3.477741 5.195478 -0.97121513
-3.9466479 3.9277506 -0.98781192
-2.6806138 4.0061436 -0.9955954
-3.3459368 3.3241088 -1.0776147
-2.280231 3.4129291 -1.0630442
-2.7839289 2.7609444 -1.1028399
-1.9590859 2.9389143 -1.1055171
-2.3735416 2.3482003 -1.121044
-1.6949608 2.5503967 -1.1297262
-2.0619755 2.034982 -1.136508
-1.4801391 2.2347629 -1.1455343
-1.8315145 1.8031261 -1.1604705
-1.2934461 1.9625455 -1.1484202
-1.6302729 1.5999687 -1.1734289
-1.1573483 1.7647457 -1.1678878
-1.4531589 1.4206802 -1.1780488
-1.0232633 1.5698324 -1.1659364
-1.3065566 1.2720135 -1.1855448
-0.92176247 1.4249642 -1.1817172
-1.1869848 1.1507704 -1.2002683
-0.82769406 1.2913721 -1.1910689
-1.0783184 1.0395937 -1.2107645
-0.75231314 1.1864854 -1.2143832
-0.97387606 0.9333427 -1.2128615
-4.514679 6.8297539 -0.85904944
-3.4545107 5.2299113 -0.97367114
-3.895422 3.9246385 -0.98099941
-2.6435709 4.0037193 -0.99094307
-3.3165417 3.3355896 -1.0747191
-2.2555168 3.4211986 -1.0612891
-2.7812018 2.7922974 -1.1085261
-1.944163 2.9556634 -1.1073093
-2.3818624 2.3855288 -1.1318662
-1.6756786 2.5552571 -1.1273034
-2.0481331 2.0462797 -1.1357776
-1.4648898 2.2414935 -1.1443554
-1.8107332 1.8046794 -1.1542978
-1.2813798 1.970445 -1.1484202
-1.6090668 1.598657 -1.1652039
-1.1441216 1.7681409 -1.1654668
-1.4450293 1.4301784 -1.1785502
-1.0145303 1.5775098 -1.166993
-1.2849934 1.2664708 -1.1730081
-0.9138847 1.4319768 -1.18286
-1.1747036 1.1529305 -1.1949807
-0.81468934 1.2884156 -1.183709
-1.0752586 1.0494498 -1.2145363
-0.74461764 1.1904378 -1.2137293
-0.97079933 0.94188976 -1.2162046
-8.2351561 8.4258127 -0.91070151
-4.4645371 6.8448319 -0.8574841
-3.4153414 5.2402477 -0.97167563
-3.8567915 3.933702 -0.97733116
-2.6109359 4.0075564 -0.98790896
-3.2796178 3.3391843 -1.0693734
-2.2328987 3.4325395 -1.060537
-2.7572649 2.8024478 -1.1058185
-1.9285885 2.9715397 -1.1088029
-2.3425498 2.3751259 -1.1200892
-1.651304 2.5521002 -1.1214193
-2.0355389 2.0588083 -1.1357776
-1.451607 2.2512126 -1.1447483
-1.7957762 1.8118719 -1.1518288
-1.2721764 1.9828076 -1.1510541
-1.6086346 1.6179618 -1.1720581
-1.1341926 1.7766029 -1.1664351
-1.437449 1.4402426 -1.1795533
-1.0057415 1.585139 -1.1680496
-1.2944096 1.2915043 -1.1888154
-0.90770447 1.4417241 -1.1862886
-1.1687553 1.1612574 -1.1961558
-0.80635047 1.29272 -1.1830957
-1.0721183 1.0593072 -1.2183082
-0.743258 1.2046421 -1.2235385
-4.4256835 6.8771148 -0.85811025
-3.3702965 5.2411575 -0.96799153
-3.8490222 3.9742677 -0.98152345
-2.5592902 3.9814868 -0.97759295
-3.2672131 3.3676412 -1.0720463
-2.2086577 3.4412873 -1.0590327
-2.7373338 2.8165519 -1.1047354
-1.9005412 2.9680471 -1.1031275
-2.3438091 2.405751 -1.1277283
-1.6290509 2.551904 -1.1169198
-2.0267706 2.0752554 -1.1379688
-1.4372729 2.2593012 -1.1443554
-1.7833499 1.8215539 -1.1510056
-1.257103 1.9860212 -1.1484202
-1.6024163 1.6316094 -1.1747997
-1.1232702 1.7835287 -1.1664351
-1.421296 1.4416425 -1.1735352
-0.99194211 1.5848029 -1.1632949
-1.2829217 1.2958475 -1.1855448
-0.89407849 1.439598 -1.1800028
-1.1638901 1.1707023 -1.1985058
-0.80047274 1.3010068 -1.1861624
-1.0672479 1.0675156 -1.2201941
-0.73113292 1.2014246 -1.2156911
-0.95547664 0.95006186 -1.2115244
-4.3897996 6.914216 -0.85936248
-3.3237815 5.2392101 -0.96384692
-3.8041446 3.9764657 -0.97628307
-2.5332386 3.9946342 -0.97698611
-3.2559314 3.3974788 -1.0751646
-2.1978583 3.4711325 -1.064047
-2.7053335 2.8180175 -1.0987785
-1.8771968 2.9715843 -1.1001403
-2.3316329 2.4228194 -1.1290015
-1.6198615 2.5721719 -1.1214193
-2.0127063 2.0863123 -1.1372384
-1.4224055 2.2665198 -1.1435695
-1.768338 1.8285311 -1.1485366
-1.2434657 1.9914109 -1.1471032
-1.5806069 1.6292807 -1.1661178
-1.1136907 1.792617 -1.1678878
-1.4142343 1.4521958 -1.1750398
-0.97907692 1.5858023 -1.1595969
-1.2778772 1.306692 -1.1882702
-0.88179898 1.4394586 -1.1754314
-1.1566849 1.1778219 -1.1985058
-0.79288465 1.3065691 -1.1867757
-1.0557594 1.0690639 -1.2145363
-0.72413671 1.2065368 -1.2163451
-0.95015329 0.95643419 -1.2121929
-4.3457084 6.9384928 -0.85904944
-3.2873778 5.2528048 -0.96261895
-3.760062 3.9789789 -0.97121739
-2.513355 4.0175748 -0.97880661
-3.2310026 3.4131451 -1.0738281
-2.1739542 3.4804478 -1.0627934
-2.6840172 2.8303728 -1.0971539
-1.8523667 2.9725173 -1.0962572
-2.3297858 2.4508221 -1.1353674
-1.6040485 2.5820627 -1.1214193
-1.9979404 2.096601 -1.1361427
-1.4012114 2.2634771 -1.1376747
-1.7583441 1.8406651 -1.1493596
-1.230752 1.9982381 -1.1466643
-1.5699646 1.6383063 -1.1656609
-1.0944415 1.7859882 -1.1591722
-1.4052972 1.4608459 -1.1750398
-0.96976978 1.5925051 -1.1601253
-1.2622631 1.3066695 -1.1811843
-0.86997938 1.4399253 -1.1714314
-1.1432382 1.1785078 -1.1920433
-0.78241909 1.3073432 -1.1830957
-1.0524383 1.078862 -1.2183082
-0.7178759 1.2129104 -1.2183069
-0.94322515 0.96118474 -1.2108557
-4.3046212 6.9675651 -0.85936248
-3.2535281 5.2703543 -0.96215838
-3.7469985 4.0142117 -0.97418696
-2.4973991 4.0470891 -0.98224527
-3.198014 3.4200885 -1.0698189
-2.1515419 3.4920728 -1.062292
-2.6791036 2.8601372 -1.1022985
-1.8385906 2.9911447 -1.0989456
-2.2952363 2.4443388 -1.1258185
-1.6019 2.6142552 -1.1311105
-1.9850383 2.1088207 -1.1361427
-1.3935263 2.2822347 -1.1427835
-1.7488934 1.8534081 -1.1505941
-1.2203338 2.0088239 -1.1484202
-1.5757811 1.6647042 -1.1775414
-1.0893458 1.8024046 -1.1654668
-1.3903476 1.4631696 -1.1700246
-0.96172869 1.6013371 -1.1622384
-1.2565368 1.3168162 -1.1833645
-0.86616856 1.4536961 -1.1782886
-1.138225 1.1878375 -1.1943933
-0.77357978 1.3107589 -1.181869
-1.0441798 1.0836192 -1.2164223
-0.71347076 1.2225196 -1.2235385
-0.93989754 0.9696238 -1.2141987
-0.62670064 1.0886289 -1.2083802
-4.2711034 7.0091338 -0.86124086
-3.2098229 5.2716503 -0.95878136
-3.714288 4.0284405 -0.97209078
-2.4694648 4.0573173 -0.9810316
-3.1710153 3.4332016 -1.0678141
-2.13661 3.5159636 -1.0655513
-2.6726179 2.8885341 -1.1069015
-1.8206974 3.0031857 -1.0992442
-2.280195 2.4583762 -1.1258185
-1.5829175 2.6192174 -1.1290339
-1.9688919 2.117552 -1.1343167
-1.3771247 2.2868035 -1.1408186
-1.7263026 1.8521036 -1.1431869
-1.2093703 2.0185862 -1.1497372
-1.5637145 1.6723925 -1.1761706
-1.078266 1.8090547 -1.1654668
-1.3789753 1.4691498 -1.1680186
-0.95361567 1.6101302 -1.1643516
-1.2501585 1.3263316 -1.1849998
-0.85681677 1.4582759 -1.1777171
-1.1364779 1.2006762 -1.2002683
-0.76750886 1.3188943 -1.1849357
-1.036975 1.0894425 -1.2157936
-0.7033149 1.2222843 -1.2189609
-0.93341607 0.97483557 -1.2135302
-0.63388199 1.1168976 -1.235418
-6.5167208 10.847789 -0.69864732
-4.2326264 7.042881 -0.86218005
-3.169277 5.2776918 -0.95632529
-3.6855221 4.0467873 -0.97104269
-2.4349465 4.0564394 -0.97718841
-3.1341207 3.4353092 -1.0624684
-2.1135035 3.5265162 -1.0647992
-2.6548438 2.9048784 -1.1069015
-1.811541 3.0298638 -1.1049197
-2.2772353 2.4856017 -1.1318662
-1.5596117 2.616792 -1.1238421
-1.9483054 2.1213655 -1.1299343
-1.3625976 2.2944198 -1.1404256
-1.7167578 1.8646727 -1.1444215
-1.1864499 2.0081766 -1.1396402
-1.5371288 1.6643128 -1.1638331
-1.0649288 1.8118653 -1.1630458
-1.3681701 1.4756801 -1.166514
-0.94628727 1.6203502 -1.1675212
-1.2414255 1.3333639 -1.1844547
-0.8470301 1.4620856 -1.1765742
-1.1274313 1.2058536 -1.1985058
-0.75782955 1.3208385 -1.1824824
-1.0345325 1.1003175 -1.2208228
-0.6965484 1.2278929 -1.2202687
-0.94019133 0.99405068 -1.2302455
-0.62103528 1.1100742 -1.2236323
-6.4561443 10.89788 -0.69930881
-4.1862898 7.0635858 -0.86155397
-3.1328058 5.2902369 -0.95509726
-3.6599636 4.068593 -0.97086805
-2.4035256 4.060348 -0.97455883
-3.1182041 3.460269 -1.0642503
-2.08887 3.5344176 -1.0632949
-2.6272941 2.9103951 -1.1028399
-1.7929159 3.0409222 -1.1049197
-2.2231395 2.4566505 -1.11245
-1.5416244 2.6230769 -1.1224576
-1.9377542 2.1360381 -1.1313951
-1.3475643 2.3011503 -1.1396396
-1.705284 1.8751713 -1.1444215
-1.176367 2.0193005 -1.1418352
-1.5142987 1.6599134 -1.1542373
-1.0502816 1.8123093 -1.1591722
-1.3596741 1.4846853 -1.1670156
-0.93547982 1.6246544 -1.1664647
-1.2292482 1.3366363 -1.1806391
-0.83967102 1.4701059 -1.1788599
-1.116717 1.2091818 -1.1949807
-0.7500996 1.326151 -1.1830957
-0.68863183 1.2314833 -1.2196149
-0.93356663 0.9992575 -1.2295768
-6.3957024 10.948497 -0.70002544
-4.1549129 7.1097474 -0.86405843
-4.7700939 5.3761106 -0.91305715
-3.0997882 5.3085065 -0.95494378
-3.6120403 4.0652118 -0.96475422
-2.3844907 4.0851688 -0.97698611
-3.0936728 3.4756956 -1.0631367
-2.0520339 3.52124 -1.0555226
-2.6055429 2.9221501 -1.1012154
-1.7785403 3.0592914 -1.1076081
-2.1903343 2.450455 -1.1035377
-1.5170333 2.6178753 -1.1162275
-1.9252324 2.148581 -1.1317604
-1.3324997 2.3077829 -1.1388537
-1.6974003 1.8896676 -1.1468905
-1.1670872 2.0319343 -1.1449082
-1.515994 1.6823896 -1.1633762
-1.0404439 1.8209987 -1.1606247
-1.3470564 1.4891506 -1.1640065
-0.92297858 1.6259335 -1.1632949
-1.2232784 1.3466359 -1.1828195
-0.83144009 1.4766605 -1.1800028
-1.117457 1.2249787 -1.2037933
-0.74541008 1.3369372 -1.1886156
-1.0188491 1.1106377 -1.2183082
-0.68069744 1.2350229 -1.2189609
-0.60426915 1.1119127 -1.2173928
-6.3298979 10.990129 -0.70019078
-4.0987973 7.1135645 -0.8614496
-4.7487855 5.4187074 -0.91532564
-3.0706089 5.3334208 -0.95601827
-3.6045644 4.1072798 -0.96947062
-2.3574257 4.0963278 -0.97617704
-3.0652075 3.4865589 -1.0606865
-2.033283 3.538801 -1.0570269
-2.5799289 2.9294136 -1.0979662
-1.7488201 3.0511034 -1.1007378
-2.1727479 2.4610059 -1.1022645
-1.5014073 2.627949 -1.1165737
-1.9138637 2.1624451 -1.1328559
-1.3201339 2.3191121 -1.1404256
-1.6827493 1.8966384 -1.144833
-1.1514986 2.0335844 -1.1418352
-1.495589 1.6803645 -1.1556082
-1.0288215 1.8265861 -1.1601406
-1.3361645 1.4954525 -1.1625019
-0.9142285 1.6337891 -1.1648798
-1.2093935 1.3478763 -1.1773686
-0.82793915 1.4917799 -1.1880028
-1.1072112 1.2288064 -1.2008559
-0.73681235 1.3407936 -1.1880023
-1.0104486 1.1151394 -1.2164223
-0.66877341 1.2311989 -1.2111135
-0.92924899 1.0194315 -1.2402747
-0.60117769 1.1225879 -1.2250189
-6.2564287 11.018343 -0.69952929
-4.1105804 7.2362981 -0.87324166
-4.7031121 5.4334917 -0.91293114
-3.0363624 5.3495831 -0.95555776
-3.5728455 4.1218791 -0.96772379
-2.3211317 4.0911245 -0.97152472
-3.0559011 3.5192869 -1.0649185
-2.0225048 3.5705836 -1.0627934
-2.5625377 2.9459147 -1.0982369
-1.725371 3.0534675 -1.0977508
-2.1706905 2.4892957 -1.1089487
-1.481571 2.6305726 -1.1138047
-1.8993337 2.1727457 -1.1321255
-1.3058794 2.3271685 -1.1404256
-1.6782881 1.9151533 -1.1497711
-1.143816 2.0492415 -1.1466643
-1.4829012 1.6868374 -1.1537803
-1.0150461 1.8282746 -1.1572354
-1.3303982 1.507515 -1.165511
-0.90787715 1.6460592 -1.1696345
-1.2105535 1.3659382 -1.186635
-0.82113314 1.5011518 -1.1914314
-1.1018026 1.2379949 -1.2032058
-0.72819537 1.3445948 -1.187389
-1.0051432 1.1230569 -1.2183082
-0.65977824 1.2326112 -1.2084976
-0.91551292 1.0168247 -1.2302455
-0.59360564 1.1249807 -1.2236323
-6.1555409 10.997277 -0.69578081
-4.0670738 7.2631192 -0.8734504
-3.0020335 5.3655262 -0.95509726
-3.5314784 4.1250253 -0.96335679
-2.2955072 4.104435 -0.97132242
-3.0259993 3.5283513 -1.0620229
-2.0000861 3.5820811 -1.0625427
-2.5456684 2.9630432 -1.0987785
-1.7107823 3.0715005 -1.1004391
-2.1436212 2.4889202 -1.1029011
-1.4658576 2.640434 -1.1141509
-1.8719736 2.1681523 -1.1237259
-1.2817841 2.3174348 -1.13178
-1.6665055 1.9254149 -1.1497711
-1.1303544 2.0546467 -1.1457862
-1.4736894 1.6972479 -1.1546942
-1.0025489 1.8321657 -1.1557828
-1.3165754 1.5104324 -1.1614989
-0.8965435 1.6493609 -1.1680496
-1.1977319 1.3682935 -1.1822743
-0.8134644 1.5090514 -1.1937171
-1.0899115 1.2398698 -1.1985058
-0.72179073 1.3525218 -1.1904556
-0.99771821 1.1286205 -1.2176796
-0.64867342 1.2299446 -1.2019582
-0.59068054 1.1362751 -1.2319516
-12.637947 15.010371 -0.55495125
-6.0758886 11.012983 -0.69440275
-4.0065727 7.2592039 -0.87000668
-2.9638057 5.3743272 -0.95340872
-3.5029225 4.1428566 -0.96248341
-2.2820992 4.139884 -0.97637928
-2.9904306 3.5304866 -1.0571227
-1.9715348 3.5824122 -1.0590327
-2.5342906 2.9866815 -1.1017569
-1.6960371 3.089469 -1.1031275
-2.1393652 2.5150239 -1.1086304
-1.450079 2.6502016 -1.1144969
-1.8713198 2.1944733 -1.1313951
-1.2671003 2.3244488 -1.1313871
-1.6647276 1.9473814 -1.1567669
-1.1198673 2.0654931 -1.1479812
-1.4626685 1.7055831 -1.1542373
-0.99128813 1.8382827 -1.1557828
-1.3055894 1.5165153 -1.1599944
-0.88760906 1.6570764 -1.1696345
-1.1783471 1.3629326 -1.1713728
-0.80611455 1.5176382 -1.1965743
-1.0854664 1.2502004 -1.2020308
-0.71311063 1.356226 -1.1898422
-0.98821688 1.1317921 -1.2145363
-0.64041674 1.232559 -1.2006503
-0.90051228 1.0251895 -1.2269024
-0.58238351 1.1373122 -1.2291785
-3.977638 7.3124814 -0.8734504
-4.599761 5.5160928 -0.91242701
-2.9246392 5.381125 -0.95141315
-3.4799609 4.1672955 -0.96318215
-2.2608619 4.1615534 -0.97819978
-2.9693372 3.5495167 -1.0573454
-1.9481318 3.5918891 -1.0582805
-2.517772 3.0043888 -1.1025692
-1.6720532 3.0905843 -1.0998417
-2.1220636 2.5259259 -1.1076756
-1.4377978 2.6664813 -1.117612
-1.8584192 2.2066262 -1.1317604
-1.2510734 2.3289394 -1.1298151
-1.6451039 1.9485061 -1.1514173
-1.1075959 2.0731182 -1.1484202
-1.4487264 1.7104533 -1.1514957
-0.98081112 1.8458759 -1.1567512
-1.2973806 1.525816 -1.1609974
-0.87623584 1.6602386 -1.1680496
-1.1808505 1.3828886 -1.1822743
-0.79450428 1.5181932 -1.1931458
-1.063552 1.2402513 -1.1861682
-0.70477557 1.360576 -1.1898422
-0.98582476 1.1431348 -1.2201941
-0.6297397 1.2304041 -1.1947647
-0.88397151 1.0189002 -1.2128615
-0.5721488 1.1344296 -1.2222457
-6.6625881 8.1046762 -0.81097674
-3.9383328 7.3472691 -0.87470263
-4.5607834 5.5380864 -0.9114188
-2.8897002 5.3954844 -0.95079917
-3.443049 4.1748962 -0.96003789
-2.2486889 4.2003856 -0.98406571
-2.9518483 3.5729303 -1.0589045
-1.9046094 3.5636477 -1.0464967
-2.485173 3.0027242 -1.0963416
-1.6526092 3.0999436 -1.099543
-2.1125782 2.5461948 -1.1108586
-1.4156868 2.6644828 -1.1131124
-1.837701 2.209399 -1.1273779
-1.2427821 2.3479502 -1.1353168
-1.6214437 1.9445639 -1.1431869
-1.0935991 2.0774901 -1.1471032
-1.4433404 1.7254506 -1.1556082
-0.97149557 1.8557351 -1.1591722
-1.285212 1.5304351 -1.1584898
-0.86564058 1.6648306 -1.1675212
-1.171262 1.3888263 -1.1811843
-0.78705406 1.5266868 -1.1960028
-1.0574909 1.2486063 -1.1879307
-0.69461906 1.3613571 -1.1867757
-0.97324508 1.1426497 -1.213279
-0.62388098 1.2376229 -1.1980345
-0.87479991 1.0209169 -1.2088499
-0.56742132 1.142437 -1.2270987
-6.646667 8.1872034 -0.81513834
-4.5129461 5.5490346 -0.90864623
-2.8528502 5.4061227 -0.94957113
-2.2361238 4.2392244 -0.9899317
-2.9292533 3.59022 -1.0586818
-1.8809032 3.5718408 -1.0454938
-2.4660928 3.0171711 -1.0960708
-1.6335573 3.1100254 -1.099543
-2.0716803 2.528312 -1.0974901
-1.3953953 2.6656382 -1.1099975
-1.8288369 2.2263882 -1.1302996
-1.2296275 2.3579776 -1.1364958
-1.6123784 1.9579941 -1.1452445
-1.0833131 2.0889468 -1.1497372
-1.4230952 1.7226166 -1.1478401
-0.95728344 1.8562177 -1.1557828
-1.2769018 1.5396241 -1.1594929
-0.85618323 1.6716222 -1.1685779
-1.1589625 1.3914775 -1.1773686
-0.7720983 1.5205115 -1.1874315
-1.045137 1.2494851 -1.1826432
-0.68518889 1.3634764 -1.1849357
-0.95820552 1.1390778 -1.2032208
-0.61863005 1.246171 -1.2026122
-0.86659771 1.0239949 -1.2061754
-0.55913436 1.1433074 -1.2243255
-6.6019192 8.2348337 -0.81583196
-4.4800553 5.5781679 -0.90889829
-2.8114207 5.4077439 -0.9468081
-2.2154894 4.2632933 -0.99235898
-2.8937128 3.5914252 -1.0537816
-1.8638552 3.592767 -1.0482517
-2.4511611 3.0367403 -1.0976954
-1.6074263 3.1064286 -1.0947636
-2.087733 2.580034 -1.1143597
-1.390193 2.6958301 -1.1189965
-1.8186605 2.2419057 -1.1324908
-1.214716 2.36466 -1.1361028
-1.5991839 1.9664364 -1.1444215
-1.0712926 2.0971549 -1.1506152
-1.4214954 1.7423435 -1.1551512
-0.94706464 1.8643968 -1.1572354
-1.2663345 1.5460914 -1.1584898
-0.85164648 1.6882151 -1.1765022
-1.1498702 1.397915 -1.1768236
-0.76642472 1.5325602 -1.1931458
-1.0451813 1.2652327 -1.1914557
-0.67645955 1.3669471 -1.1843224
-0.95368308 1.1479268 -1.206364
-0.61396211 1.2560606 -1.2084976
-0.86029828 1.0292929 -1.2061754
-0.54960757 1.141522 -1.2187793
-6.5617876 8.2884769 -0.81714207
-4.4334154 5.5900068 -0.90637779
-2.7741327 5.4169769 -0.94542658
-3.3521473 4.2206016 -0.95619494
-2.1982136 4.2942419 -0.99640447
-2.8546262 3.5877528 -1.0475448
-1.8391322 3.5989635 -1.0467474
-2.436682 3.0569925 -1.0995908
-1.5905023 3.1204846 -1.0962572
-2.0671287 2.5868709 -1.1118134
-1.3638533 2.6850708 -1.1110358
-1.8054522 2.2537491 -1.1328559
-1.2022595 2.3761714 -1.1380677
-1.5836638 1.9719481 -1.1419524
-1.0575969 2.1020834 -1.1497372
-1.4018489 1.7399504 -1.1478401
-0.9332583 1.8654778 -1.1543303
-1.2600884 1.5578684 -1.1614989
-0.83749419 1.685805 -1.1712193
-1.1460285 1.4108008 -1.1817293
-0.75628155 1.5357616 -1.1920029
-1.0312599 1.2640976 -1.1844057
-0.66805941 1.3710721 -1.1843224
-0.93872893 1.1441371 -1.1963058
-0.60132271 1.2495785 -1.1986884
-0.85065281 1.030538 -1.2014952
-0.5444448 1.1487803 -1.222939
-6.5132632 8.3317251 -0.81745034
-4.3916922 5.6077323 -0.90486544
-2.727937 5.4083109 -0.94097495
-3.3438084 4.2635589 -0.96126068
-2.1771138 4.3181429 -0.99883175
-2.8337631 3.606734 -1.0479903
-1.8065697 3.5894275 -1.0407302
-2.4131157 3.0658348 -1.0974246
-1.5721817 3.1318908 -1.0968546
-2.0482807 2.5957847 -1.110222
-1.3549076 2.7084916 -1.1172659
-1.7783056 2.2479923 -1.1244563
-1.1802751 2.3686891 -1.1309941
-1.574366 1.9851986 -1.1440099
-1.0418867 2.1028974 -1.1466643
-1.3889312 1.7457349 -1.1460123
-0.92218101 1.8719538 -1.1548144
-1.2505059 1.5655707 -1.1614989
-0.82526904 1.6870985 -1.1685779
-1.135252 1.4151902 -1.179549
-0.74576998 1.5381579 -1.1902885
-0.65895087 1.3737211 -1.1830957
-0.93560773 1.1547096 -1.2013348
-0.59688276 1.2600816 -1.205228
-0.84572309 1.0374672 -1.203501
-0.53555793 1.1481807 -1.2187793
-6.458972 8.3675861 -0.817065
-4.3681245 5.6486993 -0.90713394
-2.68503 5.405478 -0.93759787
-3.3260248 4.2948947 -0.9637062
-2.1544969 4.3393145 -1.0006522
-2.8187501 3.633297 -1.0506632
-1.7754835 3.5822301 -1.0354651
-2.3942585 3.0805836 -1.0974246
-1.5503978 3.1363454 -1.0950624
-2.0253229 2.5993304 -1.1064024
-1.3370194 2.7142293 -1.1162275
-1.7679172 2.2632632 -1.1266475
-1.1665289 2.3775375 -1.13178
-1.5705843 2.0055847 -1.1501826
-1.0301458 2.1116734 -1.1479812
-1.3814906 1.7584211 -1.148754
-0.90838659 1.8728536 -1.1519092
-1.2376615 1.5691385 -1.1584898
-0.8134281 1.6890706 -1.1664647
-1.1286296 1.4247581 -1.1817293
-0.73278308 1.5352987 -1.1845742
-1.0217154 1.2842567 -1.1914557
-0.65050948 1.3777385 -1.1830957
-0.92850494 1.1604285 -1.2013348
-0.59073818 1.2671489 -1.2084976
-0.8416729 1.0455332 -1.206844
-0.53211027 1.1593049 -1.2270987
-6.401464 8.3991308 -0.81629437
-4.3400049 5.6840687 -0.90852022
-2.6483388 5.4147501 -0.93636984
-3.2930305 4.3066182 -0.96178472
-2.1162174 4.3286972 -0.9951908
-2.7815826 3.6311762 -1.0450947
-1.7534699 3.5930567 -1.0354651
-2.3776557 3.0982714 -1.0985078
-1.5256947 3.134644 -1.0911791
-2.004133 2.6049464 -1.1035377
-1.3256624 2.733356 -1.1207271
-1.7534281 2.2733312 -1.1262823
-1.1507188 2.3821664 -1.1306012
-1.552116 2.0072529 -1.145656
-1.0109458 2.1049957 -1.1409572
-1.3739463 1.7710816 -1.1514957
-0.89800882 1.8807608 -1.1533618
-1.2290733 1.5780683 -1.1594929
-0.80377626 1.6955643 -1.1675212
-1.1193496 1.4309961 -1.1811843
-0.72230208 1.5375378 -1.18286
-1.0183153 1.2962286 -1.1967432
-0.64304209 1.3838528 -1.1849357
-0.92040294 1.1648835 -1.2000775
-0.58389831 1.2728126 -1.2104595
-0.83200264 1.0466032 -1.2021637
-0.51608884 1.1428438 -1.2063004
-6.3450117 8.4318781 -0.81567782
-3.6434016 7.5597692 -0.88054651
-4.3020606 5.7066307 -0.90789008
-2.6142073 5.4291172 -0.93606287
-3.2517118 4.307097 -0.95741773
-2.1087296 4.3813105 -1.0042932
-2.7427838 3.6264045 -1.0388581
-1.7351633 3.6116014 -1.0377216
-2.3562748 3.1097329 -1.0974246
-1.5060198 3.143086 -1.0908804
-1.9840975 2.6119103 -1.1013095
-1.3023983 2.7278924 -1.1151892
-1.736062 2.2796035 -1.124091
-1.134106 2.38503 -1.1286362
-1.5381113 2.0145657 -1.1444215
-1.0006988 2.1168451 -1.1440302
-1.3603489 1.7759478 -1.1492109
-0.88607967 1.8854436 -1.1528776
-1.2193674 1.58558 -1.1594929
-0.79012644 1.6935393 -1.1627667
-1.1038858 1.4292116 -1.1740983
-0.7183643 1.5538591 -1.1920029
-1.0083587 1.2998949 -1.1943933
-0.63486725 1.3884907 -1.185549
-0.90797573 1.1637644 -1.1931626
-0.57327646 1.2701653 -1.204574
-0.82648343 1.0528585 -1.203501
-0.51169986 1.1519165 -1.2125399
-6.2878036 8.4634485 -0.8149842
-3.5990787 7.5864754 -0.88106829
-4.279995 5.7504277 -0.91066265
-2.585501 5.4548779 -0.93775141
-3.2111001 4.3080215 -0.95322543
-2.089354 4.4100976 -1.0079341
-2.7105649 3.6298866 -1.0350715
-1.710901 3.6178045 -1.036468
-2.341186 3.129528 -1.0993201
-1.4895556 3.1583097 -1.0929714
-1.967465 2.6232769 -1.1009912
-1.2800494 2.7239449 -1.1103436
-1.7203636 2.2879808 -1.1229955
-1.1249074 2.4036038 -1.134138
-1.5339506 2.0348821 -1.1505941
-0.98693317 2.1213162 -1.1431522
-1.3515725 1.7870991 -1.1510386
-0.8752287 1.8924333 -1.153846
-1.2075226 1.590276 -1.1574868
-0.78113723 1.701442 -1.1648798
-1.0915368 1.4312916 -1.1702827
-0.70881647 1.5582377 -1.1920029
-0.99790335 1.3028455 -1.1914557
-0.62536365 1.3901991 -1.183709
-0.56731403 1.2778077 -1.2084976
-0.82228547 1.0608485 -1.206844
-0.50375664 1.1530534 -1.2104601
-6.2333961 8.4986544 -0.81467593
-3.5524611 7.6084161 -0.88106829
-4.2364068 5.765389 -0.90889829
-2.5607545 5.4894452 -0.94097495
-3.1787703 4.3197126 -0.9514786
-2.0614271 4.4210591 -1.0075296
-2.6899767 3.6488039 -1.0357397
-1.6833601 3.6168249 -1.0332087
-2.3219395 3.1438344 -1.0993201
-1.4649252 3.1561365 -1.0890882
-1.9581014 2.6444421 -1.1048108
-1.2656744 2.7368569 -1.1124203
-1.7079571 2.3007362 -1.124091
-1.1101379 2.4104609 -1.134138
-1.5198035 2.0420625 -1.1493596
-0.96903646 2.1167116 -1.1374452
-1.3384528 1.7925076 -1.1492109
-0.85997641 1.8898041 -1.149004
-1.1982611 1.5983474 -1.1579883
-0.77312928 1.7116195 -1.1685779
-1.0847511 1.4406412 -1.1724629
-0.69689554 1.5573142 -1.1880028
-0.98549747 1.303135 -1.1861682
-0.61841977 1.3976215 -1.1867757
-0.89033043 1.1704862 -1.1887621
-0.56188476 1.2868112 -1.2137293
-0.81937629 1.070598 -1.2121929
-6.1729455 8.5254364 -0.81359702
-3.5023882 7.6228404 -0.88023347
-4.1980386 5.7872596 -0.90826815
-2.5237257 5.49787 -0.93974692
-3.1701453 4.363831 -0.95689368
-2.0244594 4.4122624 -1.0026749
-2.6503274 3.6415939 -1.0290575
-1.6571051 3.6182842 -1.0307015
-2.2952328 3.1479104 -1.0958
-1.444739 3.1633296 -1.0884908
-1.9435169 2.6587029 -1.1057658
-1.2480804 2.7428637 -1.1117281
-1.6960092 2.3141761 -1.1255519
-1.0964653 2.41974 -1.1353168
-1.4959123 2.0359259 -1.1407179
-0.95529234 2.1209793 -1.1365672
-1.3290124 1.8028345 -1.1505817
-0.84979469 1.8982396 -1.1509408
-1.188946 1.6063652 -1.1584898
-0.75950956 1.7093478 -1.1638232
-1.07289 1.4432329 -1.1691926
-0.68831873 1.5638142 -1.1897172
-0.97845131 1.3104542 -1.1873432
-0.60888696 1.3992171 -1.1849357
-0.54800886 1.2763313 -1.2006503
-0.48956895 1.1591485 -1.2104601
-6.1292148 8.5753193 -0.814753
-3.4539106 7.6405625 -0.87981606
-4.1624498 5.8129096 -0.90826815
-2.5025523 5.5411692 -0.94450551
-3.1593761 4.4056044 -0.96178472
-1.9812309 4.3888969 -0.99458402
-2.6222451 3.6498702 -1.0268301
-1.632884 3.6239707 -1.0294479
-2.2719378 3.1564653 -1.0939046
-1.4272577 3.1764874 -1.0899843
-1.9277216 2.6713469 -1.1060841
-1.2350602 2.7590332 -1.1151892
-1.681232 2.3237848 -1.1251867
-1.0804743 2.4239025 -1.134138
-1.4801812 2.0406396 -1.1382487
-0.94116843 2.1243365 -1.1352502
-1.3215892 1.8159896 -1.1537803
-0.8420099 1.9122266 -1.156267
-1.1765151 1.6101375 -1.1559824
-0.74696696 1.7093078 -1.1606535
-1.0580618 1.4416782 -1.1626515
-0.67838436 1.5672551 -1.1891457
-0.967031 1.3118737 -1.1832308
-0.59935796 1.4007484 -1.1830957
-0.5384019 1.2754878 -1.1967266
-0.80306405 1.0764003 -1.2075126
-0.48327628 1.1641273 -1.2125399
-6.0690103 8.6021748 -0.81375116
-3.4041352 7.6552501 -0.87908554
-4.1284218 5.8407707 -0.90864623
-2.4620862 5.5419712 -0.9420495
-3.1260266 4.4160671 -0.95986325
-1.9494944 4.3902307 -0.99215668
-2.5794983 3.637264 -1.0188115
-1.6063021 3.6241865 -1.02669
-2.2581029 3.1781936 -1.0966123
-1.4061971 3.1816936 -1.0887895
-1.905794 2.6754036 -1.1029011
-1.2124369 2.7536798 -1.1099975
-1.6712701 2.3401175 -1.1281083
-1.0659504 2.4313288 -1.1345309
-1.4724076 2.0563526 -1.1419524
-0.93242282 2.1399558 -1.1405182
-1.3088647 1.8218974 -1.1524096
-0.83026081 1.9173571 -1.156267
-1.1661072 1.6166245 -1.1554809
-0.74082255 1.7240001 -1.1675212
-1.0546067 1.4556113 -1.1686474
-0.66971922 1.5736535 -1.19086
-0.95563024 1.3132024 -1.1791182
-0.59075183 1.4043995 -1.1830957
-0.87552506 1.196089 -1.1981916
-0.53143525 1.2808638 -1.1986884
-0.79688525 1.0819063 -1.2081813
-0.47394642 1.1617324 -1.2069937
-6.0201025 8.6449795 -0.81429064
-3.3551068 7.6714373 -0.87856376
-4.103858 5.8822641 -0.91116679
-2.4315956 5.5651236 -0.94343102
-3.0915401 4.4246721 -0.95759237
-1.9229116 4.403007 -0.99235898
-2.5403602 3.6290636 -1.0121292
-1.5821003 3.6295373 -1.0254364
-2.233032 3.1841078 -1.0939046
-1.3851265 3.1867609 -1.0875946
-1.8898875 2.6878223 -1.1032194
-1.1988729 2.7688158 -1.1131124
-1.6574165 2.351089 -1.1284735
-1.050648 2.4369791 -1.134138
-1.4497675 2.0512073 -1.1341336
-0.92139781 2.1505919 -1.1431522
-1.2873704 1.8153826 -1.1432707
-0.81642401 1.9175851 -1.1533618
-1.1546603 1.6216348 -1.1539763
-0.72758698 1.7222562 -1.1632949
-1.0427291 1.4579633 -1.165377
-0.66290134 1.5845467 -1.1960028
-0.95038736 1.3229846 -1.1826432
-0.58151996 1.4065381 -1.181869
-0.85997063 1.1900924 -1.1868761
-0.52328038 1.2833999 -1.1980345
-0.79110646 1.0879784 -1.2095184
-0.46385986 1.1572604 -1.1993676
-5.9635558 8.6768255 -0.81382823
-3.3103302 7.6973615 -0.87918991
-4.0845661 5.9318457 -0.91494751
-2.3896015 5.5617809 -0.94036096
-3.0715992 4.4540958 -0.95986325
-1.8900626 4.4012251 -0.98932487
-2.521924 3.650197 -1.0136884
-1.5605628 3.6409559 -1.0259379
-2.2123568 3.1961663 -1.0933632
-1.3632965 3.1899345 -1.0858024
-1.8641713 2.6861281 -1.0978084
-1.1781863 2.7674878 -1.1096513
-1.6445543 2.3635068 -1.1295691
-1.0274212 2.4239073 -1.1250994
-1.4381971 2.0615594 -1.1349566
-0.90853345 2.1570332 -1.1435913
-1.2869188 1.8385507 -1.1528665
-0.8049804 1.9233657 -1.153846
-1.1501607 1.6364752 -1.1594929
-0.71830821 1.7298248 -1.1654081
-1.0327965 1.4629641 -1.1642869
-0.64973348 1.5802354 -1.1897172
-0.93663478 1.3208699 -1.1755931
-0.57525694 1.4159337 -1.1867757
-0.85220057 1.1947136 -1.1862475
-0.51314515 1.2809682 -1.1928029
-0.78961927 1.1000612 -1.2175418
-0.45939049 1.1667905 -1.2063004
-5.9158006 8.7215042 -0.81459886
-3.2703965 7.7349329 -0.88117266
-4.0430741 5.9494119 -0.91381329
-2.3569679 5.5799794 -0.94097495
-3.0547376 4.4883246 -0.96318215
-1.8557843 4.3955975 -0.98548168
-2.4939871 3.657548 -1.011461
-1.5359375 3.6451104 -1.0244336
-2.1883597 3.2033219 -1.091197
-1.3418494 3.1938403 -1.0843089
-1.85569 2.7092476 -1.1025828
-1.1561124 2.7625484 -1.1048057
-1.6273861 2.3697162 -1.1277431
-1.0174804 2.4420493 -1.1306012
-1.4420604 2.0943666 -1.1481251
-0.8939063 2.1592464 -1.1418352
-1.2720742 1.8412896 -1.1496679
-0.7914995 1.9242228 -1.151425
-1.1386185 1.6413691 -1.1579883
-0.71056783 1.7412748 -1.1701627
-1.0238005 1.4692737 -1.1642869
-0.64002508 1.5841924 -1.1897172
-0.9336167 1.3338847 -1.1820557
-0.56626534 1.4187032 -1.1861624
-0.50305945 1.2784607 -1.1875713
-0.78586388 1.1091328 -1.2222221
-0.45222256 1.1695873 -1.2063004
-5.8449821 8.7319546 -0.81220978
-3.2282178 7.7677112 -0.88263363
-3.9943371 5.9559822 -0.91104072
-2.3325369 5.6180644 -0.94496602
-3.0287871 4.5094357 -0.9637062
-1.8306553 4.4114242 -0.98649305
-2.4665995 3.6655028 -1.0094564
-1.5128018 3.6526773 -1.0239321
-2.1428332 3.1783764 -1.0782001
-1.3247769 3.2081883 -1.0863998
-1.8395624 2.7213683 -1.1029011
-1.1480619 2.7912817 -1.1134586
-1.6096815 2.3750334 -1.1255519
-1.0003865 2.4431405 -1.1282432
-1.4174006 2.0858374 -1.1386602
-0.88064057 2.1646907 -1.1418352
-1.2552403 1.8409761 -1.1446415
-0.78590733 1.9444561 -1.1606247
-1.1270596 1.646183 -1.1564838
-0.69987023 1.745602 -1.1701627
-1.0195167 1.4824358 -1.1697376
-0.63392544 1.597243 -1.1965743
-0.92311484 1.3362592 -1.1791182
-0.55956769 1.4272984 -1.1904556
-0.49765971 1.2878746 -1.1934569
-0.7798959 1.1151526 -1.2235593
-5.7764573 8.7451925 -0.81012899
-3.1789911 7.78369 -0.88221622
-3.9577167 5.9803786 -0.91104072
-2.3039942 5.6469097 -0.94742209
-3.0081325 4.5386047 -0.96597701
-1.7998549 4.4135056 -0.98447025
-2.4472978 3.6854413 -1.0107929
-1.4889011 3.6583042 -1.0229293
-2.1211579 3.1882589 -1.077117
-1.3054258 3.2171409 -1.0866985
-1.8180951 2.7255068 -1.1000364
-1.1302102 2.7965338 -1.1127664
-1.5914555 2.3794489 -1.1229955
-0.97576666 2.4253461 -1.1172398
-1.4111745 2.1043355 -1.1440099
-0.86934251 2.1750593 -1.1444693
-1.2439207 1.8486435 -1.1446415
-0.77170134 1.9435493 -1.1572354
-1.1150001 1.6502001 -1.1544778
-0.68976849 1.7514435 -1.1712193
-1.0099306 1.4879699 -1.1691926
-0.62232471 1.5965148 -1.1931458
-0.92538297 1.3572762 -1.1926308
-0.55335337 1.4373389 -1.1959754
-0.82962555 1.2095561 -1.1856189
-0.48947975 1.2901965 -1.1928029
-0.43959728 1.179776 -1.2111533
-5.700913 8.7470598 -0.80704629
-3.1311715 7.8030496 -0.88221622
-3.9225743 6.0070419 -0.9114188
-2.2733464 5.6710296 -0.94911063
-2.995856 4.580874 -0.97104269
-1.7683693 4.4135575 -0.98204297
-2.4283783 3.7060962 -1.012352
-1.4703798 3.6772587 -1.0256871
-2.1063097 3.2084565 -1.079554
-1.2867213 3.2277498 -1.0875946
-1.8060285 2.7437377 -1.1029011
-1.1085291 2.7920804 -1.1082668
-1.5742615 2.3852842 -1.1211694
-0.97134393 2.4577985 -1.1294222
-1.385159 2.0931933 -1.1333106
-0.85598022 2.1803527 -1.1444693
-1.2340304 1.8584642 -1.1460123
-0.76294035 1.9563994 -1.1620774
-1.1058135 1.6584501 -1.1554809
-0.67533356 1.74614 -1.1648798
-1.0026479 1.496925 -1.1713728
-0.613397 1.6026026 -1.19486
-0.92019963 1.3676285 -1.1967432
-0.54536134 1.4429237 -1.1978154
-0.82480389 1.2184879 -1.1893907
-0.47996998 1.2889218 -1.1888793
-0.76196593 1.1184936 -1.2168732
-0.43432987 1.1878657 -1.2166995
-0.66584325 0.97046262 -1.1777438
-5.6471348 8.7818756 -0.80704629
-3.0832338 7.8221154 -0.88221622
-3.8867166 6.0326653 -0.91167086
-2.2519023 5.7188911 -0.95479023
-2.9682257 4.5999975 -0.97121739
-1.7373098 4.4143004 -0.97981799
-2.4071803 3.7233827 -1.0130202
-1.4456655 3.6808052 -1.0241828
-2.0834432 3.2164724 -1.0779293
-1.2672399 3.2364728 -1.0878934
-1.7824466 2.7444322 -1.0987632
-1.0910355 2.7979555 -1.1079208
-1.56112 2.397239 -1.1222651
-0.94925773 2.4457102 -1.1211696
-1.3722893 2.1016531 -1.1333106
-0.84258574 2.1855638 -1.1444693
-1.2235787 1.8674892 -1.1469262
-0.75186038 1.9634953 -1.16353
-1.0951412 1.6644814 -1.1549793
-0.66731942 1.7573948 -1.1696345
-0.99159491 1.5002513 -1.1691926
-0.6021089 1.6024951 -1.1920029
-0.91313356 1.3752713 -1.1985058
-0.5353986 1.4432807 -1.1953621
-0.82206368 1.2306393 -1.1963058
-0.47516814 1.3003696 -1.1967266
-0.75052494 1.1163596 -1.2095184
-0.43043962 1.2000054 -1.2264054
-0.65749818 0.97101808 -1.1734996
-5.5621657 8.7675304 -0.80257642
-3.03159 7.8316116 -0.88117266
-3.8517563 6.0597491 -0.912175
-2.2206898 5.7427387 -0.95647877
-2.9309559 4.6040034 -0.96824783
-1.7052487 4.4120889 -0.97698611
-2.363843 3.706028 -1.0043334
-1.4216598 3.6859937 -1.02318
-2.0595212 3.2227066 -1.0757631
-1.2480425 3.2459691 -1.0884908
-1.7645507 2.753721 -1.0981266
-1.0788791 2.8177397 -1.1131124
-1.5488976 2.4106889 -1.124091
-0.94536674 2.4807038 -1.1345309
-1.3608488 2.1123323 -1.1345451
-0.83138585 2.1965749 -1.1475422
-1.2111312 1.8734678 -1.1460123
-0.73979849 1.9680716 -1.16353
-1.0853785 1.6718954 -1.1554809
-0.65593058 1.7598652 -1.1685779
-0.97962302 1.5020939 -1.165922
-0.59368443 1.6100092 -1.19486
-0.9015736 1.3761102 -1.1943933
-0.52761334 1.4495074 -1.1978154
-0.81321311 1.2337123 -1.1944199
-0.47049904 1.3125188 -1.205228
-0.74242771 1.1190847 -1.2075126
-0.42259011 1.2012643 -1.2250189
-5.4976859 8.7845907 -0.80103511
-2.983479 7.8500657 -0.88117266
-3.8129208 6.0807476 -0.91179687
-2.1815531 5.7460947 -0.95479023
-2.8817046 4.5885477 -0.96126068
-1.6694585 4.3995781 -0.97192925
-2.3405395 3.7196374 -1.0041106
-1.3973023 3.6901207 -1.0219264
-2.0186591 3.2018957 -1.0646616
-1.2270911 3.2508872 -1.0875946
-1.7557259 2.7773173 -1.1032194
-1.0589287 2.817281 -1.1103436
-1.5325816 2.4177885 -1.1229955
-0.925295 2.4735389 -1.1286362
-1.3459066 2.1175659 -1.132899
-0.81476337 2.1932123 -1.1431522
-1.2005696 1.8823638 -1.1469262
-0.72013783 1.9520519 -1.151425
-1.074633 1.6777951 -1.1549793
-0.64395332 1.7606671 -1.1664647
-0.97084153 1.5087814 -1.1664671
-0.58072329 1.6051331 -1.1885743
-0.89311296 1.3816162 -1.1943933
-0.51791263 1.4504859 -1.1959754
-0.80605191 1.2393308 -1.1950485
-0.46293855 1.3168085 -1.2065358
-0.73554713 1.1236191 -1.2075126
-0.4180311 1.21201 -1.2333381
-5.4211607 8.7816782 -0.79772121
-2.9324749 7.8607697 -0.88033783
-3.7750165 6.1031852 -0.91167086
-2.1438394 5.7528906 -0.95371574
-2.8306801 4.569314 -0.95357478
-1.6414063 4.4069858 -0.97132242
-2.3202429 3.7380702 -1.0052243
-1.3702495 3.6868284 -1.0186671
-2.0147345 3.2395627 -1.0730555
-1.208447 3.261935 -1.0887895
-1.7286189 2.77195 -1.0968534
-1.0370766 2.8114023 -1.105498
-1.5206788 2.4318826 -1.1251867
-0.90249491 2.4584525 -1.1192048
-1.3333722 2.1265564 -1.1333106
-0.80129075 2.1981704 -1.1431522
-1.1894708 1.8904477 -1.1473832
-0.71469814 1.9745337 -1.1620774
-1.0670909 1.6887456 -1.1579883
-0.63227773 1.7621876 -1.1648798
-0.96336287 1.5175413 -1.1686474
-0.57360798 1.6164 -1.1942886
-0.50743669 1.4491638 -1.1922956
-0.79801232 1.2435988 -1.1944199
-0.45706883 1.3260614 -1.2124214
-0.72904235 1.1287359 -1.2081813
-0.41266364 1.2206967 -1.2395777
-0.64953601 0.99836093 -1.1918908
-5.3417683 8.7730484 -0.7939449
-2.8708532 7.8421917 -0.87626797
-3.7426636 6.1347017 -0.91293114
-2.1247897 5.810483 -0.96108389
-2.8061838 4.5924778 -0.95479751
-1.6146709 4.4178944 -0.97152472
-2.2926815 3.7447536 -1.0032196
-1.3439534 3.6851625 -1.0159092
-1.9963292 3.2543256 -1.0738678
-1.1864532 3.263907 -1.0869973
-1.7105846 2.7808895 -1.0962168
-1.0239574 2.8291814 -1.1099975
-1.5076833 2.4443369 -1.1266475
-0.89674067 2.4898982 -1.1309941
-1.3174224 2.1300471 -1.1308415
-0.78778791 2.2030456 -1.1431522
-1.1801941 1.9014895 -1.1496679
-0.70139819 1.9755837 -1.1601406
-1.0571665 1.6959956 -1.1584898
-0.6180712 1.756423 -1.1585404
-0.95091844 1.5184499 -1.1648319
-0.56340945 1.6191142 -1.1937171
-0.87307459 1.3876776 -1.1902808
-0.49545789 1.4432856 -1.1849357
-0.79036671 1.2484719 -1.1944199
-0.44965008 1.3309911 -1.2143832
-0.72250241 1.1338151 -1.2088499
-0.40312639 1.2170486 -1.2333381
-0.64263427 1.0011379 -1.1904761
-5.276545 8.7868557 -0.79224944
-2.8260419 7.8690195 -0.87731153
-3.6988139 6.1473508 -0.9114188
-2.0880961 5.8206205 -0.96062338
-2.7820177 4.6163564 -0.95619494
-1.5891854 4.4323277 -0.97253609
-2.2701647 3.7595854 -1.0034424
-1.3258816 3.7061005 -1.0194192
-1.9808083 3.2739263 -1.0763047
-1.1724939 3.2882047 -1.0926727
-1.692014 2.7889016 -1.0952619
-1.0078341 2.8389475 -1.1113819
-1.4863667 2.4432027 -1.1218998
-0.88205862 2.4970877 -1.13178
-1.2991067 2.1295319 -1.1263149
-0.76711947 2.187489 -1.1326163
-1.1643248 1.9018676 -1.1455554
-0.68782467 1.9757186 -1.1577196
-1.0449276 1.6995023 -1.1564838
-0.60811311 1.7625903 -1.1601253
-0.94158351 1.5242561 -1.1648319
-0.55346417 1.6225407 -1.1937171
-0.85899615 1.3840702 -1.1826432
-0.48734829 1.4485443 -1.1867757
-0.7839272 1.2552769 -1.1963058
-0.44361442 1.3401891 -1.2202687
-0.71197003 1.132561 -1.2028323
-0.39364955 1.2133298 -1.2270987
-0.63799202 1.0074509 -1.1933055
-5.2245626 8.8224974 -0.79255772
-2.774071 7.8758931 -0.8761636
-3.6554563 6.1605458 -0.91003251
-2.053982 5.8379841 -0.96139091
-2.7551491 4.635879 -0.95671898
-1.5622841 4.4429193 -0.97273833
-2.2350826 3.7533414 -0.99809664
-1.3114492 3.7379162 -1.0259379
-1.9532838 3.2736187 -1.0722432
-1.1516658 3.2935352 -1.0920752
-1.6734096 2.7967906 -1.0943071
-0.99224627 2.8503942 -1.1134586
-1.4790108 2.4650493 -1.1277431
-0.86250693 2.4902883 -1.1262784
-1.295413 2.1530821 -1.1345451
-0.75660414 2.2006516 -1.1370063
-1.1544722 1.9120218 -1.1473832
-0.67484117 1.9774177 -1.156267
-1.0322369 1.702183 -1.1539763
-0.59891856 1.7711143 -1.1632949
-0.93177688 1.5292889 -1.1642869
-0.53959543 1.6142313 -1.1851457
-0.85048747 1.3893148 -1.1826432
-0.47894555 1.4530076 -1.1880023
-0.77784175 1.2627119 -1.1988204
-0.4363161 1.3457644 -1.2228845
-0.70657492 1.139436 -1.2055068
-0.38401538 1.2088538 -1.2201658
-0.63891411 1.022737 -1.2067453
-5.1411705 8.8044519 -0.78808779
-2.7279656 7.8993464 -0.87689412
-3.6256027 6.196559 -0.91204894
-1.992666 5.7766805 -0.94926411
-2.7296391 4.657794 -0.95776707
-1.5349934 4.4524217 -0.97273833
-2.196214 3.7400839 -0.99096894
-1.2875444 3.7431467 -1.0251857
-1.9448766 3.3054545 -1.0787417
-1.1317449 3.3014426 -1.092374
-1.660553 2.8143539 -1.0971718
-0.9792828 2.8697476 -1.1186504
-1.4581692 2.4644635 -1.1233606
-0.85134912 2.507724 -1.13178
-1.2965945 2.1852884 -1.147302
-0.74538219 2.2120643 -1.1405182
