# .PCD v0.7 - Point Cloud Data file format
VERSION 0.7
FIELDS x y z
SIZE 4 4 4
TYPE F F F
COUNT 1 1 1
WIDTH 1478
HEIGHT 1
VIEWPOINT 0 0 0 1 0 0 0
POINTS 1478
DATA ascii
5.211895 14.034509 -0.4234083
3.138185 8.4640322 -0.69776523
5.306047 14.023767 -0.42405853
3.1992211 8.4688673 -0.69976896
3.2450378 8.433259 -0.69845879
3.3010874 8.4243288 -0.69938362
6.597261 10.163016 -0.66893524
3.3571494 8.4150276 -0.70030844
6.6984596 10.18157 -0.67284906
3.4075944 8.3914995 -0.70007724
5.7967973 14.006805 -0.42872316
6.598516 9.8968639 -0.65669763
3.4662545 8.3879404 -0.70154148
5.8872871 13.982028 -0.42906243
6.6233435 9.8032398 -0.65316963
3.5273173 8.3894911 -0.7034682
5.978478 13.958506 -0.4294582
3.5873532 8.3878574 -0.70516366
6.0959482 13.994874 -0.43171984
6.6298966 9.5579586 -0.64219987
3.6455131 8.3812304 -0.70647377
6.1881809 13.97183 -0.43217218
6.7125311 9.5514088 -0.6445151
3.7097757 8.3878832 -0.70893991
6.3078575 14.009249 -0.43451864
6.7988086 9.5490837 -0.64716107
3.7983799 8.4477119 -0.71595305
6.4053454 13.99573 -0.43531021
6.8783002 9.5363407 -0.64914554
3.8692067 8.4659595 -0.7194981
6.505434 13.986981 -0.4362714
7.2435808 9.9139929 -0.67786539
3.91856 8.4366331 -0.71903574
6.5988216 13.963069 -0.43678027
7.3220954 9.8934383 -0.67951912
3.9591885 8.3889875 -0.71703196
6.6904302 13.934933 -0.43717608
6.8089147 9.0829563 -0.62670988
4.0610218 8.4697227 -0.72604883
6.7762456 13.894517 -0.43720433
6.7528167 8.8938885 -0.61651188
4.1290679 8.4778109 -0.72890031
6.8684721 13.867009 -0.43765667
6.6715302 8.6757784 -0.60421914
4.1894083 8.4692955 -0.73036456
6.9457936 13.809422 -0.43717608
6.6847601 8.5834751 -0.60063601
4.2882872 8.5369787 -0.73845661
7.0181208 13.742508 -0.43641275
6.7032933 8.499177 -0.59760422
4.3659558 8.5602436 -0.7427724
7.0664244 13.629968 -0.43420765
4.4138141 8.5244398 -0.74200171
7.2760792 13.826075 -0.44186899
4.4702106 8.5051394 -0.74269533
7.3819699 13.820847 -0.44314116
4.5270057 8.4863472 -0.74346596
7.4980726 13.833293 -0.44500703
4.5694985 8.4408751 -0.74192464
7.6040068 13.825563 -0.44625092
4.6447263 8.4554968 -0.74570096
7.7164598 13.828401 -0.44786233
4.7091408 8.449482 -0.74770468
7.8262782 13.825157 -0.44930413
4.7672763 8.4317112 -0.74870652
7.8965249 13.751737 -0.4484843
7.9877987 13.715119 -0.44888008
4.9014697 8.4260073 -0.75348473
7.947762 13.455843 -0.44198206
4.9399066 8.3734465 -0.75148094
8.276721 13.818443 -0.45555192
4.9722533 8.3113213 -0.74862945
8.3836651 13.804137 -0.45676756
5.0024724 8.2465572 -0.74554682
5.4515419 5.9552455 -0.84715295
8.5143309 13.827339 -0.45925537
4.9735847 8.0866203 -0.7338326
5.4582353 5.8895879 -0.84256136
1.1965621 1.2660756 -0.96404004
8.648241 13.853695 -0.46188453
5.0700598 8.1312485 -0.74069154
1.1789032 1.2321575 -0.94370365
8.7619476 13.845982 -0.46341115
5.1081371 8.0814447 -0.73899609
1.1858326 1.2242721 -0.94321948
8.9034081 13.880304 -0.46637955
5.1414914 8.024765 -0.73668408
1.1853586 1.2088515 -0.93692487
9.0205545 13.874858 -0.46804753
5.2172413 8.0340395 -0.74046034
1.1853569 1.194104 -0.93111449
9.1385183 13.869329 -0.46974376
5.2236848 7.9369144 -0.73444915
1.194522 1.1886598 -0.93256712
9.2523117 13.856223 -0.47121382
5.294416 7.937891 -0.73753184
9.3758106 13.856316 -0.4731645
5.3513966 7.9176464 -0.73868781
9.4855261 13.834801 -0.47440842
5.3976245 7.8813715 -0.73837954
1.2711363 1.2191622 -0.9746924
9.5993223 13.818207 -0.47585019
5.4464502 7.8489232 -0.73845661
9.7230501 13.814631 -0.47777259
5.4962282 7.8178034 -0.73868781
9.8563805 13.823079 -0.48014733
5.5591326 7.8050466 -0.74069154
5.6110024 7.7764492 -0.74123102
10.122074 13.833385 -0.48478371
5.6727324 7.7611928 -0.74308062
10.238905 13.814383 -0.4863103
5.7321124 7.7422657 -0.74462199
10.336079 13.768085 -0.486904
5.7878847 7.7181153 -0.74570096
4.1131878 5.4948993 -0.87197274
10.45243 13.746577 -0.48840234
5.8260875 7.670547 -0.74454492
5.8779068 7.6409764 -0.74516147
5.9314203 7.6134181 -0.74600917
5.9897575 7.5917521 -0.74747348
4.2719655 5.4242549 -0.87713981
6.0530305 7.5758877 -0.74955428
4.3057866 5.398716 -0.87726581
6.0937572 7.5316286 -0.74886066
4.3444409 5.3791404 -0.87840003
6.1360645 7.4894691 -0.74839824
4.3754811 5.3500781 -0.87802196
6.2302842 7.5099959 -0.75425535
4.398735 5.3116693 -0.87613159
6.2576499 7.4494867 -0.75202042
4.4229579 5.2746973 -0.87449324
6.3161607 7.4261398 -0.75356179
4.4725752 5.2678771 -0.87789595
6.4143066 7.4484401 -0.75980419
4.5106339 5.2471056 -0.87903017
6.4533362 7.4014273 -0.7590335
4.5518627 5.2298059 -0.88079453
6.4887319 7.3504796 -0.75787753
4.5982957 5.218152 -0.88356709
4.6242833 5.183177 -0.88243288
4.65201 5.1502881 -0.88167673
4.6828547 5.1209149 -0.88155067
1.2336938 1.3254654 -1.049662
1.2818584 0.88112038 -0.96782762
1.2457416 0.83875167 -1.0457168
1.2110507 1.269536 -1.0170639
1.2460799 0.82791317 -1.0417168
1.2176156 1.2608366 -1.0160608
1.1976045 0.78515595 -0.99714524
1.2192811 1.2471554 -1.0110457
1.2175589 0.78759879 -1.0097167
1.2329963 1.2457997 -1.0160608
1.2071495 0.7704004 -0.99714524
1.2320443 1.2296544 -1.0090396
1.2042147 0.75816935 -0.99085951
1.274067 1.2560855 -1.0371243
1.2297583 0.7637552 -1.0080024
1.2736094 0.78020138 -1.0400025
1.3008496 0.78595209 -1.0582882
1.3420186 0.79482394 -0.97046906
1.3461372 0.78614634 -0.96994072
4.8720546 2.5329223 -0.85301757
4.9077339 2.5133398 -0.85654819
4.9089465 2.476059 -0.85409212
5.0117507 2.4512329 -0.86667937
7.9278731 3.5253651 -0.91039205
4.4546742 1.9781108 -1.0067204
7.9539108 3.478647 -0.91091383
4.4505734 1.9436851 -1.0030795
7.9851556 3.4340992 -0.91206169
4.4417191 1.9074522 -0.99842721
8.0207329 3.3912356 -0.9137314
1.2558566 0.86369127 -0.99095196
1.2229794 0.83007354 -0.96097267
1.2106354 0.81088972 -0.94734573
1.2148888 0.80298388 -0.94680065
1.2113661 0.79001856 -0.9402597
1.2373484 0.81066233 -1.0739552
4.4499378 1.6885678 -0.98305434
1.2140756 0.78120989 -0.9386245
1.2117175 0.78328598 -1.0475175
4.4960065 1.6745626 -0.99094307
1.223093 0.77644175 -0.94189495
1.2055844 0.76887423 -1.0381175
1.2626512 0.7907263 -0.96860379
1.1924711 0.75025809 -1.0228424
1.2967232 0.80102891 -0.99095196
1.2025527 0.74634093 -1.0275425
1.3137852 0.80047315 -1.0002183
1.2340262 0.75542551 -1.0504551
1.3344817 0.80189693 -1.01221
1.2469512 0.75285852 -1.0575051
4.4338179 1.3779303 -0.95898366
4.4356303 1.3487047 -0.95756775
4.8951273 2.5930328 -0.98274624
4.4372516 1.3195088 -0.95615184
4.5929446 2.3612447 -0.91619337
4.4799747 2.2685213 -0.89086485
4.7861977 1.2648473 -1.0224979
4.9065843 2.3721006 -0.9668504
4.8330278 2.300061 -0.94955713
9.8750668 4.2427907 -0.83078295
9.9312229 4.194921 -0.83332616
4.7165504 1.8323895 -0.89767736
4.7448587 1.7435647 -0.89680398
4.771214 1.7200948 -0.89977354
22.438259 7.1159496 -0.66574359
22.344023 6.3386507 -0.65686667
18.976025 -1.8497488 -1.0526015
19.007477 -2.0885818 -1.0556884
19.004223 -2.2063217 -1.0562396
19.023033 -2.3268886 -1.0580587
19.005426 -2.4431858 -1.0578934
19.008879 -2.5622892 -1.0589408
18.99181 -2.6787379 -1.0588856
18.972052 -2.7947824 -1.0587202
18.957508 -2.9115949 -1.0588856
18.940271 -3.0280187 -1.0589408
18.894741 -3.1397579 -1.0574523
18.904638 -3.2607262 -1.0591061
2.471031 -0.77717245 -1.1070224
2.4574611 -0.78950715 -1.1030926
2.4630554 -0.80801058 -1.1078084
22.533943 -7.4191356 -1.309757
2.4571791 -0.82281637 -1.1074153
2.4703574 -0.84412181 -1.1156679
5.7484422 -0.83860701 -1.0306084
5.725667 -0.87119699 -1.0274642
2.455296 -1.0287094 -1.1376747
5.9413924 -1.2049096 -1.075501
2.3448896 -0.99940938 -1.0893383
5.8799167 -1.2300521 -1.0657189
2.3370259 -1.0130471 -1.0885524
5.8712959 -1.2659 -1.0655442
2.3223517 -1.0236589 -1.0846225
5.8749528 -1.3044628 -1.0676404
2.3177052 -1.0386413 -1.0854086
5.5884705 -1.2768834 -1.0169834
2.3196566 -1.0566548 -1.0893383
5.5575256 -1.3057446 -1.012791
5.5793061 -1.4197171 -1.0213504
5.5847807 -1.4576542 -1.0239706
5.5842919 -1.4941849 -1.0255426
6.0184755 -1.6499974 -1.1071179
5.9940186 -1.6829026 -1.1044978
5.6704488 -1.743273 -1.0524433
2.5419238 -0.76982772 -1.0419207
2.5086949 -0.77660078 -1.0302342
2.486131 -0.78636438 -1.0229301
2.4732864 -0.79902852 -1.0196434
15.208387 -5.1138482 -1.2402403
2.4736416 -0.81593895 -1.0218346
15.186153 -5.2103043 -1.2410109
2.4809403 -0.83526003 -1.0269474
15.185894 -5.3145843 -1.2436312
10.172339 -5.9963756 -1.2390056
2.4696054 -0.84834999 -1.0243909
10.107184 -6.0418396 -1.2355618
6.9356599 -4.1492629 -1.2555032
2.4959817 -0.87456942 -1.0375383
10.103091 -6.1238475 -1.2396317
6.909225 -4.1912289 -1.2553496
10.053464 -6.1784334 -1.2381707
6.8682275 -4.224226 -1.2525866
10.02465 -6.2457891 -1.2393186
6.8195391 -4.2521725 -1.2484419
9.9768877 -6.3013396 -1.2381707
6.8200488 -4.3108315 -1.2533541
9.9413862 -6.364583 -1.2385881
6.7793255 -4.3435349 -1.2507446
9.9021463 -6.4254627 -1.2385881
6.7832098 -4.4049625 -1.2564242
9.9747124 -6.5598741 -1.252676
6.768435 -4.4546494 -1.2587267
10.04517 -6.6948633 -1.2666596
6.7253551 -4.4856782 -1.2558101
10.073133 -6.8031306 -1.2754254
6.7345457 -4.5517602 -1.2627178
6.7325788 -4.6108642 -1.2676299
6.746376 -4.6813812 -1.2756121
2.3619947 -1.0112392 -1.0079569
2.311986 -0.9864884 -1.1349566
6.6738729 -4.6919994 -1.2673229
2.2933483 -0.99521357 -1.1287839
6.6811767 -4.7586579 -1.2742305
2.2813618 -1.006691 -1.1259032
6.6141896 -4.7723885 -1.2670159
2.2834575 -1.0244007 -1.1300185
6.5704222 -4.8023868 -1.2642528
4.8310366 -3.532346 -1.2360998
2.3011773 -1.0493587 -1.1419524
6.5265365 -4.8320279 -1.2614897
4.8092713 -3.5619221 -1.2360998
6.4951839 -4.8707972 -1.2611828
4.7959428 -3.5978289 -1.2383249
10.162351 -7.7131195 -1.3386645
6.4911427 -4.9302826 -1.2662483
6.4592023 -4.9688139 -1.2659414
6.4192386 -5.0010657 -1.2640994
6.4210143 -5.0660663 -1.2705464
6.4755001 -5.1738358 -1.2875853
6.4482412 -5.2172003 -1.2885064
6.4443893 -5.2798386 -1.294186
6.3685222 -5.283319 -1.2854363
6.367763 -5.34899 -1.2918833
2.4249084 -2.0507033 -1.1716063
6.3205209 -5.3757973 -1.2889669
2.2832925 -1.9550965 -1.1089591
8.1464729 -4.5966263 -1.1882975
6.2874165 -5.4144783 -1.2889669
2.2662911 -1.9647678 -1.1065363
8.2300425 -4.710588 -1.2046809
6.23769 -5.4386687 -1.2855898
2.2464368 -1.9718286 -1.102729
8.2490282 -4.7888899 -1.2117383
6.1745696 -5.4506817 -1.2794497
5.9835839 -3.4681263 -1.226948
2.232893 -1.9843289 -1.1020367
8.24086 -4.8519979 -1.214889
6.1071167 -5.4581757 -1.2723885
5.8713665 -3.4513857 -1.2082573
2.1885927 -1.9691268 -1.0861154
8.3318825 -4.9746861 -1.2327846
6.0280824 -5.4544396 -1.2628713
5.9008241 -3.517597 -1.2187381
2.1535809 -1.96167 -1.0746936
8.3122339 -5.0323949 -1.234423
6.0331192 -5.526701 -1.2710069
5.8428955 -3.5318356 -1.2112268
2.1401243 -1.9735751 -1.0740013
8.2879629 -5.0874548 -1.2354312
5.9324374 -5.5017972 -1.2568847
5.8320279 -3.5743089 -1.2134976
2.1204309 -1.9796269 -1.070194
8.277647 -5.1513166 -1.2385819
5.8158412 -3.6136639 -1.2147205
2.0986984 -1.9835782 -1.0653484
8.2458839 -5.2020106 -1.2385819
5.791059 -3.647707 -1.2141964
8.1996012 -5.243423 -1.2364395
5.785996 -3.694299 -1.2178646
1.7667509 -1.7167596 -1.0527912
8.1631117 -5.2909379 -1.2358093
5.7871914 -3.7452455 -1.2229304
1.7614281 -1.7327267 -1.055935
8.0964994 -5.3185954 -1.2306422
5.7986817 -3.8033652 -1.2302669
1.74946 -1.7422042 -1.0551491
8.0670156 -5.3703732 -1.2311463
5.8121352 -3.8634014 -1.2381275
1.7400323 -1.7542117 -1.055935
7.9944367 -5.3931403 -1.2250971
5.8463016 -3.9380474 -1.2505298
1.7324537 -1.7681394 -1.0579
7.8899446 -5.3933868 -1.2141329
1.7215719 -1.7787361 -1.0579
7.6112318 -5.2716794 -1.1761991
1.7226989 -1.8018945 -1.0653666
7.9278183 -5.8587861 -1.2523187
7.940959 -5.9441772 -1.2601323
5.691771 -4.2543588 -1.2606611
7.8972225 -5.9873962 -1.258998
5.6443639 -4.2731562 -1.2559447
7.8784328 -6.0496359 -1.2618966
5.5750628 -4.2747569 -1.2463374
7.8654404 -6.1167421 -1.2658035
5.4989572 -4.2702341 -1.235158
7.8558173 -6.186985 -1.2703404
5.4734259 -4.3045034 -1.2353326
7.8254623 -6.2412562 -1.2716006
5.4630852 -4.3508883 -1.2390009
4.0044093 -4.752758 -1.2836343
4.203989 -3.3421326 -1.2270731
7.807085 -6.3053608 -1.2748773
5.5205932 -4.4523206 -1.2582157
4.1712532 -3.3580835 -1.2235092
7.7628736 -6.3487492 -1.2739952
5.2591414 -6.3974595 -1.2865108
5.532064 -4.5178738 -1.2671243
4.115056 -3.3546631 -1.2130405
7.700851 -6.3772802 -1.2702143
5.2017264 -6.407361 -1.2820592
5.5232086 -4.56742 -1.2714913
4.118453 -3.399709 -1.2201681
7.6744981 -6.4352474 -1.2723567
5.1499519 -6.423738 -1.2789891
5.5147076 -4.6176586 -1.2760329
4.1192069 -3.4430466 -1.2266276
7.6431866 -6.4892788 -1.273743
5.488523 -4.6533198 -1.276557
4.127769 -3.4934485 -1.2355372
7.5595932 -6.4985466 -1.2664336
5.0244827 -6.4272861 -1.2673229
5.4262476 -4.6580486 -1.2686964
3.8683686 -4.9501729 -1.2975913
4.1047754 -3.5174415 -1.2350917
7.5188284 -6.544158 -1.2663076
5.4362087 -4.7248435 -1.2777797
3.8468962 -4.9854455 -1.3006254
4.1000519 -3.5572557 -1.2402147
7.4710898 -6.5836105 -1.2650473
5.3590684 -4.7158303 -1.2664255
7.3905797 -6.5936656 -1.2582419
5.3057709 -4.7270098 -1.2606611
2.2541764 -1.9914136 -1.1799669
5.2686238 -4.7522221 -1.2587397
2.2412212 -2.0045869 -1.1796018
5.2175531 -4.7645416 -1.2534993
2.228879 -2.018301 -1.1796018
5.1925583 -4.800477 -1.2545474
2.2150805 -2.0306811 -1.1788714
5.0765638 -7.1025662 -1.3562013
5.1572542 -4.8268647 -1.2531499
2.20872 -2.0499339 -1.1821581
5.031179 -7.1311598 -1.3557408
5.1968699 -4.924109 -1.2700938
4.6558561 -6.6858959 -1.2656343
4.6264982 -6.7314396 -1.268858
4.5839982 -6.7580647 -1.2685509
1.807261 -1.7575421 -1.1382487
4.5479422 -6.7942762 -1.2700859
1.7633197 -1.7359884 -1.1172615
4.5159707 -6.836895 -1.272849
1.755217 -1.7493488 -1.1189076
4.7010851 -7.2129979 -1.3374739
1.7489411 -1.764617 -1.1217881
4.6962886 -7.3032117 -1.3488331
3.448396 -5.3646684 -1.3172119
1.7450943 -1.7824788 -1.1263149
3.4175119 -5.3890343 -1.3180211
1.7524983 -1.8121524 -1.1382487
3.3750319 -5.394958 -1.31438
3.3413515 -5.414732 -1.3141778
2.8955011 -3.2877338 -1.2322674
2.8683238 -3.2974489 -1.2292889
3.6149521 -4.2150774 -1.2687254
2.8587015 -3.3273995 -1.233892
2.8344941 -3.3404737 -1.2322674
4.3736181 -5.2374606 -1.2105281
2.8207455 -3.3659189 -1.2352458
4.2405381 -5.1418982 -1.1824048
2.8018808 -3.3853879 -1.2360581
4.2070432 -5.1655307 -1.1818807
2.7871478 -3.4099698 -1.2387658
3.5041387 -4.3490329 -1.2760758
2.7498472 -3.4067822 -1.2314551
3.46889 -4.3597717 -1.2729574
2.7306919 -3.4258492 -1.2322674
2.7262907 -3.4637201 -1.2398489
4.3993144 -6.055831 -1.3279127
4.3643689 -6.0859113 -1.3286114
4.2990689 -6.0731974 -1.3200521
3.2539802 -4.5883284 -1.2852081
4.2583399 -6.0946188 -1.3190041
3.2173796 -4.5962281 -1.281867
4.2320433 -6.1368442 -1.3224976
3.1935503 -4.6222997 -1.283649
4.2064967 -6.1806035 -1.3263406
2.5357053 -6.0060534 -1.3465418
3.1651285 -4.641808 -1.283649
4.1860619 -6.2324538 -1.3319303
2.4897964 -5.9997902 -1.3416872
3.1398528 -4.6659942 -1.2849854
4.1330543 -6.2358623 -1.327214
2.4488676 -6.0049791 -1.3394622
3.1170959 -4.6941056 -1.2874355
4.0833964 -6.2437997 -1.3235457
2.4137969 -6.0244374 -1.3404735
3.0903718 -4.7164049 -1.2883265
4.024188 -6.2364712 -1.3167332
2.3853939 -6.0610061 -1.3453281
3.0634916 -4.738553 -1.2892175
3.9683969 -6.2336359 -1.3109688
2.3463941 -6.070961 -1.3443167
3.0338345 -4.7564392 -1.2889947
3.9332151 -6.2628713 -1.3120168
2.3063195 -6.077919 -1.3426986
2.9999194 -4.767539 -1.28699
3.8993797 -6.2944202 -1.313589
2.2741101 -6.105722 -1.3457327
2.9716382 -4.7875128 -1.2874355
3.846823 -6.2955427 -1.3088726
2.2416458 -6.133358 -1.3487668
2.9360983 -4.7956791 -1.2847626
1.7114509 -4.6928525 -1.2937046
3.7908423 -6.2903547 -1.3029336
2.2069449 -6.1552939 -1.3505872
2.9010742 -4.8044248 -1.2823125
1.6845804 -4.7087345 -1.2952089
3.7426162 -6.2974148 -1.2996147
2.1756325 -6.1871972 -1.3546327
2.8735354 -4.8254852 -1.2832035
1.656618 -4.7217226 -1.2959611
3.6859834 -6.2896786 -1.2933261
2.1401811 -6.2078366 -1.3562509
2.8517709 -4.8564768 -1.2867674
1.6250957 -4.7244754 -1.2939553
3.6665332 -6.3454256 -1.3001387
2.0822995 -6.1624007 -1.3435076
2.8228953 -4.8755708 -1.2872127
1.5914375 -4.7205977 -1.2901946
3.5895143 -6.3010712 -1.2865137
2.0330596 -6.1406627 -1.3360234
2.792443 -4.891953 -1.28699
1.8273001 -3.185648 -1.2330848
3.5527124 -6.3264117 -1.2872124
2.0056143 -6.1846952 -1.3429008
2.7561588 -4.8979502 -1.2840945
1.811452 -3.2034018 -1.2356312
3.5138276 -6.3480916 -1.2872124
1.9735553 -6.2155533 -1.3469462
2.7374024 -4.9352303 -1.2894402
3.6257043 -6.6461306 -1.3431098
1.9342177 -6.223805 -1.3461372
2.7009897 -4.9408135 -1.2865446
3.6044381 -6.7046766 -1.3504463
1.8897251 -6.2149425 -1.3416872
2.6669238 -4.9504271 -1.2847626
1.7508268 -3.233701 -1.2346762
3.479347 -6.5683103 -1.3186547
1.8406687 -6.1898112 -1.3337984
2.6355841 -4.9649758 -1.2843171
1.7189039 -3.2218003 -1.2260822
3.5177898 -6.7405477 -1.3488742
1.8045677 -6.2075715 -1.3352144
2.6181722 -5.0061059 -1.2907766
1.690281 -3.2155042 -1.2197163
3.4633088 -6.7366109 -1.3438085
1.7645717 -6.2119327 -1.3337984
2.5976751 -5.0420089 -1.2958996
1.6774943 -3.239284 -1.2248091
3.4290257 -6.7717891 -1.3466034
2.5728655 -5.070024 -1.299018
1.6670636 -3.2680943 -1.2318116
3.3693943 -6.7565751 -1.3394415
2.5430152 -5.0883312 -1.2996862
1.3100787 -4.8504233 -1.3012261
1.6418726 -3.2680964 -1.2279921
3.3730087 -6.8690395 -1.3576082
2.5151896 -5.110837 -1.3014681
1.2728919 -4.8302875 -1.2937046
1.6276743 -3.290005 -1.2324482
3.2977982 -6.8213487 -1.3441579
2.4901593 -5.1393332 -1.3048092
1.2415433 -4.8314438 -1.2919496
1.6095324 -3.3041916 -1.2340397
3.2457263 -6.8201175 -1.3399656
2.4602568 -5.1580358 -1.3057002
1.2158728 -4.8549347 -1.2962118
1.5912775 -3.3182793 -1.2356312
3.2004766 -6.8327708 -1.3385681
2.4298043 -5.1756816 -1.3063684
1.5680543 -3.3219798 -1.2334031
3.1469505 -6.8272424 -1.3336771
2.3939123 -5.1816435 -1.304141
1.8873879 -4.0759211 -1.2634057
1.5416507 -3.3186424 -1.2286286
3.0988998 -6.8329725 -1.331057
2.3564253 -5.1838098 -1.3010226
1.8607465 -4.083921 -1.2623227
1.5228353 -3.3314879 -1.2299018
3.0593221 -6.8572536 -1.332105
1.4000752 -6.2157845 -1.3159983
2.3174102 -5.1821518 -1.2970133
1.8415592 -4.108438 -1.2663841
1.5140293 -3.3667068 -1.2394507
3.014024 -6.8686829 -1.3307076
1.3707013 -6.2644396 -1.3244938
2.2832146 -5.1909194 -1.2956769
1.8174807 -4.1223025 -1.2671964
1.4979451 -3.3863368 -1.2432703
2.9784536 -6.9024162 -1.3336771
1.3226752 -6.2277079 -1.3149869
2.2455153 -5.1914101 -1.2923357
1.4775168 -3.3963337 -1.2435886
2.9371989 -6.9232812 -1.3342011
1.2814741 -6.2213187 -1.3119528
2.2147636 -5.2077818 -1.293004
1.7769496 -4.1682048 -1.2745072
1.4559039 -3.4035923 -1.242952
2.9026217 -6.9602571 -1.3378694
1.2572699 -6.2991724 -1.3267188
2.1884079 -5.2347651 -1.2963451
0.97902006 -4.9229889 -1.2999727
1.7327371 -4.1346378 -1.2609688
1.4375647 -3.4185786 -1.2451801
2.8475375 -6.9478707 -1.332105
1.2433052 -6.4346538 -1.3536214
2.1480958 -5.2282562 -1.2914449
0.94659889 -4.9174957 -1.2969639
1.7044019 -4.1380711 -1.2588027
2.6275723 -6.5249772 -1.2479095
1.2138731 -6.4960709 -1.3649487
2.1163404 -5.2422419 -1.2916676
0.91091621 -4.8937087 -1.2891917
1.6966753 -4.1921754 -1.2720703
2.5831401 -6.5299897 -1.2458134
1.1771227 -6.5207443 -1.3685896
2.0841348 -5.2551289 -1.2916676
0.88292754 -4.9106388 -1.2922003
2.5355363 -6.526443 -1.2421451
1.1325524 -6.5017943 -1.3631283
2.0447743 -5.24965 -1.2872127
0.8534416 -4.9197793 -1.2932032
1.0900427 -6.4931684 -1.3598919
2.0167034 -5.2730246 -1.2898856
0.82307875 -4.9239688 -1.2929525
1.0515867 -6.5084357 -1.3617123
1.9966464 -5.3181558 -1.2979043
1.0116318 -6.5147653 -1.3617123
1.9747627 -5.3595791 -1.305032
0.77412635 -5.0083208 -1.3125085
0.97163898 -6.5208502 -1.3617123
1.9362055 -5.3560095 -1.3012453
0.74366534 -5.0148916 -1.31301
0.93257821 -6.5334759 -1.3631283
1.900373 -5.3595195 -1.2992407
1.5215558 -4.2793016 -1.2774857
0.89260447 -6.5400453 -1.3633305
1.8536853 -5.3314843 -1.289663
0.85068798 -6.5318031 -1.3604987
1.8181065 -5.3344531 -1.2876582
0.80974996 -6.530097 -1.3590828
1.7871937 -5.3510561 -1.2889947
0.76703215 -6.5125723 -1.3544304
1.7625116 -5.3869381 -1.2950087
0.58914685 -5.0324593 -1.3122578
0.72412562 -6.4908776 -1.348969
1.7321019 -5.4060068 -1.2970133
0.55868381 -5.0398278 -1.3132607
0.69146717 -6.563374 -1.3631283
1.6895624 -5.3867669 -1.2898856
0.52543217 -5.0210166 -1.3074942
0.65427417 -6.5986791 -1.369601
1.5672325 -5.1062579 -1.2203909
0.4950881 -5.0289631 -1.3087478
0.61395442 -6.6045194 -1.3700056
1.5403568 -5.1307178 -1.2239547
0.46422166 -5.0319061 -1.3087478
1.464638 -4.9894719 -1.1880937
0.43259057 -5.0259795 -1.3064913
1.4313072 -4.9889936 -1.1858662
1.21053 -4.4084163 -1.2858795
1.179969 -4.4027433 -1.2820888
1.1497666 -4.3977933 -1.2785687
0.16656017 -3.1554356 -1.1657223
1.1184807 -4.3879747 -1.2736949
0.14177632 -3.0401888 -1.1228038
1.2441305 -5.0278859 -1.1834161
1.0908394 -4.391952 -1.2728826
0.12239831 -3.0231905 -1.1162275
0.11005533 -2.8282266 -1.20959
1.2159967 -5.0467982 -1.1860889
1.0643229 -4.400434 -1.2734241
0.091253974 -2.784734 -1.1907269
1.1883454 -5.0684013 -1.18943
1.0328912 -4.3881412 -1.2680088
0.07406754 -2.7815645 -1.189155
1.2462912 -5.4662476 -1.2809761
1.0106723 -4.41504 -1.2739657
0.057187151 -2.7911601 -1.1930848
1.2392973 -5.5937185 -1.3090413
0.98586261 -4.4314947 -1.2769442
0.041128628 -2.8659341 -1.2249161
1.2108974 -5.6288567 -1.3155007
0.96048242 -4.4459291 -1.279381
1.1799217 -5.653358 -1.3195101
0.93436962 -4.4573917 -1.2810056
1.1488842 -5.6786466 -1.3237422
0.90815228 -4.4687014 -1.2826303
1.1143939 -5.6875024 -1.3241876
0.87699729 -4.4552989 -1.2772149
1.0791121 -5.6923175 -1.3237422
0.84856284 -4.4549222 -1.2755903
1.042056 -5.6873245 -1.3210692
0.8194688 -4.4505777 -1.2728826
1.0086678 -5.702251 -1.3230739
0.79113412 -4.4498358 -1.271258
0.55884796 -3.0993507 -1.2354776
-0.20053768 -6.6769915 -1.3797147
0.97562748 -5.7198648 -1.3257468
0.76479167 -4.460299 -1.2728826
0.94983566 -5.7825007 -1.3388884
0.7411741 -4.4877024 -1.279381
-0.28212824 -6.6662002 -1.3780966
0.90673149 -5.7400732 -1.3277514
0.71588957 -4.5064263 -1.2834426
0.5014078 -3.1072741 -1.2347472
-0.32150877 -6.6330419 -1.3716238
0.87178636 -5.7474561 -1.3281969
0.68357897 -4.4802818 -1.274778
0.48276046 -3.1130519 -1.2358428
-0.36359105 -6.6563692 -1.3768829
0.8400113 -5.7768154 -1.3337654
0.65300983 -4.4634371 -1.2688211
0.46406108 -3.1187179 -1.2369385
-0.40228805 -6.6188216 -1.369601
0.8085804 -5.8108282 -1.3404475
0.6240083 -4.4559197 -1.2655718
0.44307721 -3.108604 -1.2318256
-0.44171542 -6.5986404 -1.3659601
0.77111256 -5.8021507 -1.3373293
0.59971929 -4.482564 -1.2720703
0.42361772 -3.1084969 -1.2307301
-0.48419493 -6.6231542 -1.3716238
0.73427171 -5.7971015 -1.3351018
0.57451761 -4.5043025 -1.2772149
0.40501654 -3.1147304 -1.2321908
-0.5250569 -6.6229873 -1.3722306
0.69868755 -5.8014979 -1.3351018
0.54883981 -4.5239887 -1.2818179
0.38566855 -3.115309 -1.2314605
-0.56218272 -6.5786581 -1.3637351
0.66119647 -5.7892098 -1.3313153
0.52426285 -4.5550051 -1.2896702
0.36665481 -3.1185412 -1.2318256
-0.60566604 -6.6092186 -1.3708147
0.62398726 -5.7776499 -1.3277514
0.49453261 -4.5418673 -1.2850672
0.34792501 -3.1244333 -1.2332864
-0.64515913 -6.5946565 -1.3685896
0.58911687 -5.787189 -1.3290879
0.46350849 -4.5141726 -1.2764026
0.3287473 -3.1265092 -1.2332864
-0.68338174 -6.5691438 -1.3641397
0.55545175 -5.8101039 -1.3335427
0.43635601 -4.5226808 -1.2780272
0.30992386 -3.1321731 -1.2347472
-0.72689557 -6.5940304 -1.3702079
0.5188362 -5.802722 -1.3310925
0.41050163 -4.5463657 -1.2839841
0.29069939 -3.1340158 -1.2347472
-0.76564294 -6.5748544 -1.3671738
0.38445362 -4.5708618 -1.2902118
0.27146396 -3.1357405 -1.2347472
-0.80728275 -6.5807252 -1.3693987
0.25244209 -3.140131 -1.2358428
-0.85403168 -6.6251841 -1.3797147
0.23048262 -3.1054142 -1.2215999
-0.8966344 -6.6343765 -1.3827488
0.20744184 -3.0482569 -1.1985922
-0.9708277 -6.5744328 -1.3726351
0.16944958 -3.0403485 -1.1945751
-1.0120435 -6.5741596 -1.3738488
0.14982308 -3.0218055 -1.1869057
-1.048799 -6.5455852 -1.3691965
0.13022858 -2.9984865 -1.1774105
-1.0897466 -6.5438571 -1.3702079
0.10638205 -2.8531749 -1.1200739
-1.1325471 -6.5524874 -1.3734442
0.088409662 -2.8388863 -1.1142306
0.087002672 -2.6881437 -1.214379
-1.17584 -6.5627666 -1.3770852
0.070965648 -2.8384447 -1.1138654
-1.2041184 -6.4909139 -1.3635328
0.053547941 -2.8388267 -1.1138654
-1.2238092 -6.3785686 -1.3414849
0.036471736 -2.8660965 -1.1244563
-1.2962495 -6.5390506 -1.3768829
0.020412249 -3.0980625 -1.2153915
-1.3263357 -6.4820418 -1.3665669
0.0014122031 -3.1195409 -1.2237911
-1.3685101 -6.4852805 -1.3689942
-0.017739547 -3.1213527 -1.2245215
-1.415144 -6.5083413 -1.3756692
-0.087110482 -5.7550206 -1.3150553
-0.065530241 -4.5942349 -1.2923779
-0.037254557 -3.1519036 -1.2365732
-1.4512007 -6.4823337 -1.3720284
-0.12248319 -5.7573018 -1.3157234
-0.09389542 -4.6024084 -1.2948148
-0.056159008 -3.1274154 -1.227078
-2.090966 -9.0856762 -1.4483032
-1.4909482 -6.4733071 -1.3720284
-0.15826118 -5.7730083 -1.3195101
-0.12203134 -4.5978966 -1.2937318
-1.5380863 -6.4954853 -1.3787034
-0.19439998 -5.793364 -1.3244103
-0.1505871 -4.6076446 -1.2967103
-0.22781678 -5.7384858 -1.3121597
-0.17844541 -4.5960526 -1.2937318
-0.1144257 -3.1453884 -1.2347472
-0.26279995 -5.732111 -1.3110459
-0.20638341 -4.5891013 -1.2921072
-0.13340688 -3.1371863 -1.2318256
-1.6573864 -6.4660735 -1.3787034
-0.29994085 -5.7683592 -1.3197328
-0.23458688 -4.5887098 -1.2923779
-0.15274429 -3.1381683 -1.232556
-0.3353858 -5.7673836 -1.3199555
-0.26180246 -4.5708461 -1.2877749
-0.17245552 -3.1455379 -1.2358428
-4.2624917 -15.852832 -1.7224817
-0.3737081 -5.8109417 -1.3304243
-1.3226222 -4.8951674 -1.3132607
-0.28978276 -4.568193 -1.2875041
-4.3604751 -15.829256 -1.7227948
-0.40935633 -5.8085394 -1.3304243
-1.351084 -4.881362 -1.3117564
-0.31820825 -4.5720906 -1.2891287
-0.21029474 -3.1320386 -1.2314605
-4.4577894 -15.80316 -1.7228992
-2.5597775 -9.0624723 -1.462886
-1.8166381 -6.4272213 -1.3795125
-0.44454214 -5.800086 -1.3290879
-1.3738832 -4.8478327 -1.304987
-0.34669244 -4.5758114 -1.2907534
-4.5532923 -15.770732 -1.7223774
-1.8484205 -6.3896127 -1.3738488
-0.47939828 -5.7885056 -1.3270832
-1.3930863 -4.8030515 -1.2952089
-0.37515563 -4.5783954 -1.2921072
-2.6702347 -9.0284824 -1.462579
-1.8889811 -6.3828459 -1.3748602
-0.51456118 -5.7815709 -1.3261923
-1.4148208 -4.7684274 -1.2881888
-0.40341008 -4.5779252 -1.2926487
-0.26886311 -3.1387677 -1.2358428
-4.7335396 -15.670826 -1.7176814
-2.7078464 -8.9532871 -1.4530618
-1.9326488 -6.3861327 -1.3780966
-0.55002654 -5.7783046 -1.3261923
-1.4342158 -4.7272334 -1.2794137
-0.43221518 -4.5830307 -1.2948148
-0.28854287 -3.1416941 -1.2376689
-4.8325391 -15.65099 -1.718725
-2.7703199 -8.9610491 -1.4570529
-1.9631144 -6.3460865 -1.3720284
-0.58183289 -5.7389345 -1.3179508
-1.4910076 -4.8080325 -1.3037333
-0.46090558 -4.5860395 -1.2964394
-1.0074264 -3.2207949 -1.2449831
-0.30745122 -3.1361585 -1.2362081
-2.8315024 -8.9636688 -1.4602765
-1.9931618 -6.3059077 -1.3659601
-0.61380261 -5.7052083 -1.3110459
-1.5122938 -4.772954 -1.2967132
-0.48842347 -4.5773816 -1.2948148
-1.0260276 -3.210978 -1.2435987
-0.32746062 -3.1416202 -1.2391297
-2.9092057 -9.0166578 -1.4717892
-2.0369315 -6.3094025 -1.3693987
-0.64901805 -5.7032723 -1.3114914
-1.5433401 -4.7691112 -1.2982175
-0.51606852 -4.5704722 -1.2937318
-1.042509 -3.1948111 -1.2397914
-0.34550479 -3.1284482 -1.2347472
-4.8045955 -14.60145 -1.6129091
-3.0006509 -9.1084452 -1.4897491
-2.0633433 -6.2595816 -1.3613077
-0.68481362 -5.7059579 -1.3130506
-1.5677145 -4.7448444 -1.2942061
-0.54285008 -4.556705 -1.2907534
-1.0603133 -3.1830137 -1.2377146
-0.36307609 -3.1123993 -1.2292691
-4.8428011 -14.418963 -1.5960037
-2.0960913 -6.2300954 -1.3576669
-0.72078866 -5.7093863 -1.3148326
-1.5930867 -4.7241282 -1.2911974
-0.57151771 -4.5590196 -1.2923779
-1.0855613 -3.1933248 -1.2442908
-0.38421026 -3.1267447 -1.2358428
-4.9079685 -14.321238 -1.5884901
-3.1006551 -9.0372887 -1.484223
-2.1110666 -6.1494994 -1.3429008
-0.7577278 -5.7193527 -1.3181736
-1.6147994 -4.6932101 -1.2854309
-0.60061097 -4.5640163 -1.2948148
-0.40362677 -3.1261749 -1.2365732
-3.1557221 -9.0171604 -1.4840695
-2.1089497 -6.0227413 -1.3180211
-0.79454839 -5.727149 -1.3210692
-1.6397191 -4.6722522 -1.2824223
-0.62492323 -4.5335436 -1.2872334
-1.3398392 -3.805011 -1.2626374
-0.42155236 -3.1144142 -1.2329212
-3.2023556 -8.9734306 -1.4800783
-2.1409249 -5.9958529 -1.3149869
-0.82939476 -5.7202363 -1.3206238
-1.6670519 -4.6584573 -1.2814195
-0.64998275 -4.5105681 -1.2818179
-1.3641286 -3.7994127 -1.2635335
-1.1390638 -3.1586812 -1.238753
-0.44130674 -3.1163776 -1.2347472
-3.2465448 -8.9238968 -1.4751663
-2.1736548 -5.9715605 -1.3125596
-0.86724818 -5.7333536 -1.3248558
-1.6999172 -4.6599636 -1.2846788
-1.3847917 -3.7838016 -1.2611438
-1.1548632 -3.1419461 -1.2349458
-0.46150959 -3.1209786 -1.2376689
-3.2926517 -8.8806458 -1.4713287
-2.2088921 -5.9544382 -1.3117505
-0.90347302 -5.7346654 -1.3264149
-1.7311769 -4.6567044 -1.2866845
-0.71184069 -4.5440979 -1.2937318
-1.1705004 -3.1251364 -1.2311385
-0.47696337 -3.0941663 -1.2281736
-3.3348584 -8.8279219 -1.4659561
-2.2440014 -5.9371085 -1.3109415
-0.93627894 -5.7145829 -1.3230739
-1.7549168 -4.6333203 -1.2831745
-0.73754191 -4.5263433 -1.2899411
-1.188316 -3.1143892 -1.229754
-0.4999215 -3.1159992 -1.238034
-3.3776069 -8.7777815 -1.461044
-2.2786293 -5.9186578 -1.3099301
-0.97361463 -5.7221856 -1.3261923
-1.7780867 -4.6089172 -1.2794137
-0.7665863 -4.5293255 -1.2921072
-1.462471 -3.7790315 -1.2683128
-1.2091023 -3.1114116 -1.2314845
-0.51351964 -3.0798161 -1.2248868
-3.4303212 -8.7541323 -1.4605834
-2.333133 -5.9510651 -1.3202461
-1.003794 -5.6882625 -1.3197328
-1.8010234 -4.5844054 -1.275653
-0.79336452 -4.5188479 -1.2904825
-1.4884303 -3.7770898 -1.2707025
-1.2354198 -3.1222541 -1.238753
-0.53256613 -3.0775244 -1.225252
-3.4817741 -8.7274122 -1.4596624
-2.3786802 -5.9593759 -1.325303
-1.0344702 -5.6589808 -1.3143871
-1.8212099 -4.5534935 -1.2701372
-0.81763113 -4.4949527 -1.2850672
-1.5087354 -3.7608001 -1.2683128
-1.2556058 -3.1172259 -1.2397914
-0.55374056 -3.0870271 -1.2303648
-3.4902735 -8.5951033 -1.4410886
-2.418519 -5.9528341 -1.3271234
-1.0724349 -5.6697688 -1.3183963
-1.8487504 -4.5413365 -1.2698865
-0.84181261 -4.4718766 -1.2799226
-1.5195169 -3.721432 -1.2581568
-1.2757767 -3.112067 -1.2408297
-0.570122 -3.0698421 -1.2248868
-3.4361448 -8.3150778 -1.3976471
-2.4520061 -5.9306421 -1.3255051
-1.1066426 -5.6602116 -1.3177282
-1.8799151 -4.5379567 -1.2721429
-0.87181014 -4.479856 -1.2837133
-1.5386609 -3.7032251 -1.2551696
-0.59035224 -3.0735998 -1.2278084
-3.5089307 -8.3457594 -1.4063969
-2.4822741 -5.901042 -1.3222688
-1.1477188 -5.6848493 -1.3250785
-1.9084761 -4.5281205 -1.2726444
-0.89833319 -4.4697037 -1.2823595
-1.5650703 -3.7025049 -1.2581568
-0.60920036 -3.0699196 -1.2278084
-3.5678446 -8.3422432 -1.4094669
-2.5145826 -5.8766961 -1.3202461
-1.1718444 -5.6261625 -1.3130506
-1.9305024 -4.5029788 -1.2688836
-0.92398262 -4.4556241 -1.2799226
-1.5809736 -3.6770508 -1.25278
-0.62765199 -3.0642998 -1.227078
-3.622906 -8.3292551 -1.4110019
-2.5556743 -5.8728299 -1.3228756
-1.2057298 -5.6160069 -1.3123823
-1.9530662 -4.4795127 -1.2656243
-0.95090193 -4.447988 -1.279381
-1.6012119 -3.6620343 -1.2509878
-0.64798152 -3.0676777 -1.2299995
-3.6807399 -8.3222322 -1.4136115
-2.6023607 -5.8812184 -1.3283371
-1.2475332 -5.641819 -1.3201783
-1.9773765 -4.4603648 -1.2636185
-0.98066062 -4.453351 -1.2826303
-1.6178361 -3.6390598 -1.2465072
-0.66560435 -3.0581861 -1.2278084
-3.7313294 -8.2985897 -1.413458
-1.6481929 -7.2135615 -1.3127155
-2.6359875 -5.8597813 -1.3271234
-1.2890495 -5.6644764 -1.3273059
-2.0035143 -4.4454999 -1.2628664
-1.006478 -4.4406781 -1.2807349
-1.6342391 -3.6160197 -1.2420266
-0.6833387 -3.0495026 -1.2259824
-3.7879291 -8.2881203 -1.415607
-1.7160701 -7.3039575 -1.331057
-2.6714857 -5.8426065 -1.3269211
-1.3268919 -5.6697497 -1.3304243
-2.0247061 -4.4199214 -1.2591056
-1.0260575 -4.4016061 -1.271258
-1.6559974 -3.605057 -1.2417278
-0.70182812 -3.0443451 -1.2256172
-3.8374639 -8.2620335 -1.4151465
-1.780496 -7.3746462 -1.3459047
-2.7097611 -5.8314333 -1.3281348
-1.3641635 -5.6719275 -1.3328744
-2.0489283 -4.4012713 -1.2573506
-1.0505787 -4.3849297 -1.2682796
-1.6764717 -3.5913689 -1.240533
-0.72070938 -3.0408874 -1.2259824
-3.8923039 -8.2472677 -1.4166815
-1.847512 -7.4515057 -1.3619752
-2.7475817 -5.8191247 -1.3291461
-1.3947321 -5.6464148 -1.3288652
-2.0750675 -4.3868666 -1.2568492
-1.0740139 -4.3643799 -1.264218
-1.7001123 -3.5844638 -1.2417278
-0.73869359 -3.0336943 -1.2248868
-3.9483888 -8.2348137 -1.4186771
-1.9024256 -7.4762897 -1.368613
-2.7811177 -5.7977409 -1.3281348
-1.430789 -5.6434202 -1.3302015
-2.1069772 -4.384522 -1.2598578
-1.1031306 -4.3670406 -1.2669257
-1.7162745 -3.5619283 -1.237546
-1.4629848 -3.025445 -1.2397914
-0.75706828 -3.0282016 -1.2245215
-4.0031691 -8.2193155 -1.4202121
-1.9430417 -7.444469 -1.3649447
-2.8127789 -5.772644 -1.3263143
-1.4631811 -5.6260438 -1.3281969
-2.1317174 -4.3671613 -1.2586042
-1.1359426 -4.3834863 -1.2736949
-1.733483 -3.5419011 -1.2342601
-0.77563477 -3.0234993 -1.2245215
-4.0412593 -8.1697979 -1.4159141
-1.9690868 -7.3591666 -1.3514944
-2.8403275 -5.7394772 -1.3226733
-1.5024464 -5.6348572 -1.3324289
-2.1589036 -4.3548665 -1.2588549
-1.1608403 -4.3689909 -1.2715287
-1.7658025 -3.552563 -1.2417278
-0.79630369 -3.0267859 -1.2278084
-4.1445379 -8.2508078 -1.4343344
-2.0397174 -7.4400053 -1.368613
-2.8680153 -5.7070656 -1.3192347
-1.5429025 -5.6471615 -1.337552
-2.1821015 -4.3346205 -1.2568492
-1.1802919 -4.3348498 -1.2636765
-1.7918675 -3.5501812 -1.2447149
-0.97735655 -3.6069093 -1.254729
-0.8167997 -3.0290334 -1.2307301
-4.1843109 -8.2040958 -1.4306504
-2.0839992 -7.4226103 -1.3677396
-2.8963025 -5.6762753 -1.3162005
-1.5756848 -5.6310167 -1.3359928
-2.2082167 -4.3202877 -1.2565984
-1.208678 -4.3340168 -1.2655718
-1.803607 -3.5195851 -1.2378446
-1.0047941 -3.6200271 -1.2614132
-0.83561796 -3.0248618 -1.2310952
-4.2427502 -8.1940622 -1.4334134
-2.0955083 -7.2913933 -1.3459047
-2.9220679 -5.6410055 -1.312155
-1.609938 -5.6203051 -1.33577
-2.2297792 -4.297205 -1.2538404
-1.2326055 -4.3172626 -1.2628642
-1.8229666 -3.5042191 -1.2363511
-1.0184356 -3.5837014 -1.2509094
-0.85796326 -3.0331144 -1.2365732
-4.2897301 -8.1617517 -1.4323388
-2.1529856 -7.3218513 -1.3539399
-2.9415848 -5.5943651 -1.30548
-1.6353445 -5.5794487 -1.3284197
-2.247082 -4.2663121 -1.2488261
-1.2631217 -4.3234782 -1.2669257
-1.8435425 -3.4912798 -1.2357537
-1.0382878 -3.5701027 -1.248363
-0.87785232 -3.032264 -1.2383993
-3.2693081 -10.843859 -1.4388369
-4.3448448 -8.1448669 -1.4340274
-2.2055271 -7.3339615 -1.3586563
-2.9735506 -5.5718904 -1.3044686
-1.6555517 -5.5226183 -1.3172827
-2.271848 -4.2498827 -1.2480739
-1.2827358 -4.2925882 -1.2601565
-1.860422 -3.4714906 -1.2327666
-1.0566598 -3.5518525 -1.2442253
-3.342211 -10.844451 -1.4416095
-4.4102631 -8.1467314 -1.439093
-2.2559834 -7.3381724 -1.3619752
-3.0146787 -5.5664573 -1.3075027
-1.6865501 -5.5030355 -1.3150553
-2.2974205 -4.2350121 -1.2478232
-1.3037063 -4.2671447 -1.2550119
-1.8766721 -3.4507878 -1.2294809
-1.0842273 -3.5643482 -1.2509094
-0.91337776 -3.0159173 -1.2362081
-3.4036226 -10.807654 -1.4394671
-4.4730124 -8.1429014 -1.4432377
-2.2782435 -7.2518611 -1.3485248
-3.0633984 -5.5744615 -1.3137733
-1.7205757 -5.4935136 -1.3152779
-2.3401682 -4.2513661 -1.2568492
-1.3258476 -4.2462001 -1.2512212
-1.9005769 -3.4442213 -1.2312731
-1.1086103 -3.5657756 -1.2537742
-0.93214118 -3.0111454 -1.2365732
-3.4653163 -10.772401 -1.4375767
-4.5493503 -8.162775 -1.4516803
-2.3284137 -7.255559 -1.3518437
-3.1089909 -5.5760884 -1.3186278
-1.754845 -5.4847097 -1.3157234
-2.3775384 -4.2572117 -1.2628664
-1.3533397 -4.2425709 -1.2525749
-1.9170126 -3.4241674 -1.228286
-1.1333386 -3.5679412 -1.2569571
-0.95088041 -3.0062568 -1.2369385
-3.540946 -10.780152 -1.4414835
-4.5828152 -8.1054611 -1.4464612
-3.144593 -5.5594645 -1.3192347
-1.7799879 -5.4478922 -1.3094867
-2.3692577 -4.1818991 -1.2448146
-1.3835205 -4.2470012 -1.2563658
-1.9313886 -3.4007225 -1.224104
-1.1549171 -3.5600183 -1.2566388
-3.6026103 -10.745054 -1.4397191
-4.6354127 -8.0823317 -1.4473822
-2.3910379 -7.1480026 -1.3371707
-3.1815703 -5.5451612 -1.3204483
-1.8087554 -5.422996 -1.3061457
-2.3750963 -4.1328707 -1.2345352
-1.4110725 -4.2429991 -1.2577195
-1.9398327 -3.3673072 -1.2163377
-3.649848 -10.668307 -1.4324096
-2.5315466 -7.4164748 -1.3902732
-3.2046981 -5.5069137 -1.3159983
-1.8404256 -5.4071813 -1.305032
-2.396023 -4.110692 -1.2322787
-1.4327492 -4.2214994 -1.2539288
-1.9594947 -3.3536932 -1.2157403
-2.511601 -7.2129688 -1.354988
-3.2284725 -5.4702783 -1.3119528
-1.8566207 -5.3469772 -1.2932267
-2.4305604 -4.1117468 -1.2370424
-1.4526403 -4.1953449 -1.2487842
-1.9931711 -3.3637748 -1.2238054
-1.2193226 -3.5354683 -1.2556839
-2.551199 -7.1844325 -1.3525425
-3.2569473 -5.4419627 -1.3099301
-1.8874416 -5.3299708 -1.2918903
-2.4567392 -4.0984163 -1.2375438
-1.4828428 -4.1990609 -1.2525749
-2.0172138 -3.3572078 -1.2258964
-1.2362742 -3.5145061 -1.2509094
-4.7954669 -7.9053092 -1.43633
-2.5922172 -7.1603107 -1.3509704
-3.2877369 -5.4176898 -1.3089187
-1.9260691 -5.334794 -1.2958996
-2.4833488 -4.0857468 -1.238296
-1.5144498 -4.2061863 -1.2574488
-2.0407546 -3.3496571 -1.2276886
-1.2526946 -3.4925771 -1.2458167
-4.8195519 -7.8361764 -1.4291153
-2.643261 -7.1636691 -1.3546387
-3.3162985 -5.3899078 -1.3070982
-1.9567465 -5.3173862 -1.2945632
-2.5053246 -4.0654874 -1.2367917
-1.53625 -4.1859698 -1.2541996
-2.0602663 -3.3354485 -1.2270912
-1.2649865 -3.4598951 -1.2369044
-4.8717256 -7.8131647 -1.4303434
-2.7055316 -7.1961627 -1.3638966
-3.3404968 -5.3553319 -1.3036596
-1.98386 -5.2906747 -1.2909994
-2.5148351 -4.0254083 -1.2292701
-1.5619057 -4.176465 -1.2541996
-2.0796804 -3.3211265 -1.2264937
-1.2858611 -3.4511797 -1.2365861
-4.9216866 -7.7864661 -1.4309573
-2.7637217 -7.2162061 -1.3708838
-3.3659661 -5.3231463 -1.3008277
-2.0086324 -5.2583671 -1.2860991
-2.5596871 -4.0417976 -1.2390481
-1.5806482 -4.1488113 -1.2487842
-2.0851872 -3.2849371 -1.2178313
-1.3110502 -3.4538605 -1.2404057
-4.9405842 -7.7111917 -1.4226682
-2.824048 -7.2403917 -1.3787444
-3.3916948 -5.2916741 -1.2981981
-2.0295486 -5.2168698 -1.2789714
-2.5776405 -4.0154252 -1.2357888
-1.5956279 -4.1121111 -1.2406611
-2.1073694 -3.2752912 -1.2190261
-1.3274319 -3.433372 -1.2359495
-4.977581 -7.6649857 -1.4197516
-2.8785968 -7.2485504 -1.3836354
-3.4070275 -5.2444835 -1.2917253
-2.0568533 -5.1925359 -1.2760758
-2.6006465 -3.9970992 -1.2350366
-1.6236591 -4.1094055 -1.2428273
-2.1321182 -3.2694933 -1.2217144
-1.3543774 -3.4401581 -1.2413605
-5.009851 -7.6120129 -1.415607
-2.9285541 -7.2444439 -1.3862556
-3.4278336 -5.2063026 -1.2874776
-2.0711756 -5.1364188 -1.2653843
-2.6043396 -3.9495478 -1.2252587
-1.6509988 -4.1047239 -1.2444519
-2.1547704 -3.2603302 -1.223208
-1.3779291 -3.4379425 -1.2435886
-5.061398 -7.5885286 -1.4169886
-2.9793186 -7.241818 -1.3892251
-3.4363415 -5.1501422 -1.2787797
-2.1000621 -5.1173005 -1.2638251
-2.6322896 -3.9391277 -1.2270137
-1.6787068 -4.1007528 -1.2463473
-2.1672997 -3.2359464 -1.2190261
-1.3932688 -3.4153788 -1.2384958
-5.1205916 -7.5761595 -1.4205191
-3.0320618 -7.2433829 -1.3930681
-3.454164 -5.1086783 -1.2737229
-2.1453207 -5.1376033 -1.2720665
-2.6585813 -3.9261084 -1.2280165
-1.7079086 -4.1001501 -1.2493258
-2.1924736 -3.2304838 -1.2220131
-1.4160162 -3.4111433 -1.2400874
-5.1697736 -7.5486736 -1.4212867
-3.0768349 -7.2255478 -1.3932428
-3.4677329 -5.0615349 -1.2672501
-2.1882389 -5.1512618 -1.2787486
-2.6683812 -3.8889678 -1.2214979
-1.7307808 -4.0842752 -1.2477012
-2.2209065 -3.2295518 -1.2267925
-1.4354446 -3.3988974 -1.2388141
-5.2233176 -7.5273643 -1.4232821
-3.1203296 -7.2047257 -1.3928934
-3.4735942 -5.0039597 -1.2581477
-2.2271519 -5.1547413 -1.2829807
-2.6888778 -3.8677526 -1.2199936
-1.7558089 -4.0735788 -1.2477012
-2.2554114 -3.2370055 -1.2348576
-1.4461702 -3.366508 -1.2302201
-5.271111 -7.4975982 -1.4237427
-3.1617002 -7.1791363 -1.3916707
-3.4935284 -4.9673319 -1.2543045
-2.2528567 -5.1275907 -1.2796396
-2.7103293 -3.8480153 -1.2189907
-1.7772928 -4.0547934 -1.2452642
-2.2724791 -3.2192073 -1.233364
-1.4713537 -3.3679957 -1.2340397
-5.327908 -7.4804063 -1.4266592
-3.2036793 -7.155108 -1.3907973
-3.5000734 -4.9123039 -1.245809
-2.2866621 -5.1190119 -1.2809761
-2.7428861 -3.8439209 -1.2230022
-1.7939101 -4.0253472 -1.2395781
-2.2794206 -3.1873488 -1.2264937
-1.497764 -3.3718998 -1.2388141
-3.2475219 -7.1353159 -1.3907973
-3.5158195 -4.8708835 -1.2407521
-2.3260901 -5.1226377 -1.2854309
-2.7618833 -3.8207421 -1.2209965
-1.8134114 -4.0028648 -1.2360581
-2.2944558 -3.1671197 -1.224104
-1.5110128 -3.3462303 -1.2327665
-3.2928956 -7.1188297 -1.3914959
-3.4993982 -4.7859755 -1.2245702
-2.3488996 -5.0896802 -1.2807534
-2.7744083 -3.7888837 -1.2162328
-1.8290808 -3.9724257 -1.2301012
-2.3115871 -3.149904 -1.2229092
-1.5291438 -3.3317266 -1.2308567
-5.4529357 -7.3651862 -1.4235892
-3.3381894 -7.1020555 -1.3921947
-3.5380244 -4.7770052 -1.2278066
-2.3829827 -5.0813503 -1.2823125
-2.7958741 -3.7694561 -1.2154807
-1.848117 -3.9497929 -1.2265812
-2.3297324 -3.1341293 -1.2223119
-1.5491574 -3.3214221 -1.2305384
-3.3817039 -7.081439 -1.3921947
-3.5637429 -4.7505059 -1.2265929
-2.4032135 -5.0437508 -1.2765213
-2.8218579 -3.7560999 -1.2167343
-1.8685979 -3.9305542 -1.2241443
-2.3494933 -3.1205378 -1.2226106
-1.5699141 -3.3127108 -1.2308567
-3.4225128 -7.0552406 -1.3911467
-3.601119 -4.7394667 -1.2294247
-2.4341164 -5.0289102 -1.2765213
-2.8413346 -3.7340925 -1.21523
-1.8972852 -3.92855 -1.2271228
-2.369175 -3.1068218 -1.2229092
-1.5902109 -3.3030155 -1.2308567
-5.0936279 -10.319915 -1.4620256
-3.4609513 -7.0243921 -1.3892251
-3.6396883 -4.7296991 -1.2326611
-2.4636369 -5.0112553 -1.275853
-2.8665566 -3.719655 -1.2162328
-1.9328014 -3.9401696 -1.2344335
-2.3817766 -3.0839179 -1.2196234
-1.6042011 -3.2804217 -1.2260822
-5.1595211 -10.293788 -1.4627818
-3.5031059 -7.0012627 -1.3888758
-3.6764667 -4.7173195 -1.2352908
-2.4756141 -4.958539 -1.2662753
-2.8976648 -3.7126801 -1.2197429
-1.9603753 -3.9351292 -1.2365997
-2.3959506 -3.0632317 -1.2172338
-1.6213474 -3.2645736 -1.2238542
-5.226635 -10.269893 -1.4639161
-3.7132301 -4.7046657 -1.2379203
-2.5095189 -4.950212 -1.2680572
-2.9257932 -3.7016659 -1.2219993
-1.9905673 -3.9350522 -1.2403904
-2.4117384 -3.0447323 -1.2157403
-1.6353716 -3.2427135 -1.219398
-5.3032126 -10.26407 -1.4676968
-3.7444732 -4.6848531 -1.2387294
-2.5282462 -4.9121838 -1.2622659
-2.9490561 -3.6843996 -1.22225
-2.0199523 -3.9330401 -1.2436396
-2.4566495 -3.0626323 -1.2288834
-1.6509171 -3.22418 -1.216215
-5.3730035 -10.244514 -1.4695872
-3.5578508 -6.795157 -1.3607525
-3.7805419 -4.6709242 -1.2411567
-2.5569849 -4.8939862 -1.2615978
-2.965512 -3.6587145 -1.2197429
-2.0271356 -3.8881352 -1.2333504
-2.4747934 -3.0467601 -1.2285846
-1.6649852 -3.2030547 -1.2120771
-5.4660611 -10.268273 -1.4777789
-3.5897748 -6.7549396 -1.3570842
-3.8140974 -4.6536989 -1.2427748
-2.5472293 -4.8032746 -1.2422193
-2.9848349 -3.6367083 -1.2184893
-2.0414991 -3.8577559 -1.2276642
-2.4988976 -3.0381513 -1.2312731
-1.6934551 -3.209547 -1.2184432
-5.5563107 -10.285164 -1.4850883
-3.6208723 -6.7137198 -1.3532412
-3.8256936 -4.6098609 -1.2373135
-2.5992925 -4.8296185 -1.2531337
-3.0027618 -3.6131136 -1.2167343
-2.0501008 -3.8171704 -1.2187289
-2.5193245 -3.0249612 -1.2321692
-1.7166969 -3.2057812 -1.2209895
-5.683691 -10.368314 -1.5021019
-3.6539629 -6.676693 -1.3502717
-3.8488669 -4.5803018 -1.2356952
-2.6597176 -4.870048 -1.2678344
-3.0161488 -3.5842512 -1.2132242
-2.0679557 -3.7943761 -1.2154797
-2.5341465 -3.0050685 -1.230377
-1.7431245 -3.2076817 -1.2257639
-5.7457561 -10.330643 -1.5017238
-3.6857796 -6.6377912 -1.3469528
-3.8864181 -4.5677876 -1.2387294
-2.6706491 -4.8195281 -1.2589248
-3.032434 -3.5590453 -1.2109678
-2.0921304 -3.7833009 -1.2160212
-2.553777 -2.9909143 -1.2309743
-1.7623159 -3.1960957 -1.2254456
-3.717257 -6.5987511 -1.3436339
-3.909898 -4.538661 -1.2373135
-2.6863163 -4.7784061 -1.2524654
-3.0997436 -3.5931473 -1.2290194
-2.1237831 -3.7855043 -1.2208951
-2.5814428 -2.9860177 -1.2354549
-1.7791166 -3.180258 -1.2235359
-3.7503483 -6.562995 -1.3410137
-3.965997 -4.5470586 -1.2462136
-2.6933701 -4.7228785 -1.2422193
-3.1281006 -3.581351 -1.2315266
-2.1503036 -3.7782583 -1.2227905
-2.6116588 -2.9837663 -1.2411305
-1.7887709 -3.1519678 -1.2168516
-3.7861037 -6.5321927 -1.3394415
-3.9802096 -4.5072227 -1.2419658
-2.7222986 -4.7062631 -1.2422193
-3.1455274 -3.5570138 -1.2297716
-2.1700771 -3.7591572 -1.2208951
-2.6292846 -2.9669709 -1.2408317
-1.8019291 -3.1302521 -1.2127137
-3.815635 -6.4910135 -1.3357732
-4.0436907 -4.5228705 -1.2530909
-2.7530975 -4.6928344 -1.2431103
-3.1517963 -3.5203366 -1.2237543
-2.1916428 -3.743279 -1.2200828
-2.6436162 -2.9465201 -1.2390394
-1.822536 -3.1215928 -1.2136686
-3.8614411 -6.4776278 -1.3378694
-4.0976548 -4.5270162 -1.2611818
-2.7863264 -4.6833935 -1.2451149
-3.195442 -3.5253179 -1.2322787
-2.2057235 -3.7148616 -1.2152089
-2.6661377 -2.9351885 -1.2411305
-1.8392404 -3.1062725 -1.2120771
-3.8980584 -6.4487567 -1.3368213
-4.1346178 -4.5118966 -1.2640138
-2.8009105 -4.6428361 -1.2388783
-3.2274854 -3.5170567 -1.2362902
-2.2210279 -3.6888871 -1.2111474
-2.6828055 -2.9173694 -1.240533
-1.8636334 -3.103869 -1.2155784
-3.9282928 -6.4096065 -1.3336771
-4.1648889 -4.4893136 -1.2648228
-2.8227327 -4.6147513 -1.2359827
-3.2549348 -3.5035701 -1.2385467
-2.2506428 -3.6866927 -1.2149382
-1.8929956 -3.1093798 -1.2222626
-3.9566345 -6.3678193 -1.3300089
-4.1910152 -4.4622464 -1.2644182
-2.8438022 -4.5857458 -1.2328643
-3.2690756 -3.4757755 -1.2357888
-2.2676487 -3.6638095 -1.2119597
-1.9060637 -3.0880258 -1.2184432
-3.9909093 -6.3359237 -1.3284367
-4.1987462 -4.4158649 -1.2585523
-2.8739617 -4.5715113 -1.2337552
-3.3023567 -3.4682708 -1.2403017
-2.2916217 -3.6522729 -1.212772
-1.9254785 -3.077076 -1.2187614
-4.0334201 -6.3171258 -1.3296595
-4.161242 -4.3229904 -1.2393363
-2.9077208 -4.5628343 -1.2362053
-3.3161852 -3.4402759 -1.2375438
-2.3191547 -3.6462657 -1.2154797
-1.9499085 -3.0740092 -1.2222626
-4.057126 -6.2691131 -1.3247684
-4.1610332 -4.2700219 -1.2314475
-2.9303737 -4.5367179 -1.233978
-3.3318233 -3.4143207 -1.2355381
-2.3560891 -3.6546211 -1.2230612
-1.9718096 -3.0667713 -1.2241725
-4.0863361 -6.2301044 -1.3217989
-4.1747751 -4.2318606 -1.2278066
-2.933593 -4.481133 -1.223732
-3.3404644 -3.3814166 -1.2310252
-2.3821549 -3.6457367 -1.2249566
-1.9921426 -3.0569973 -1.2251273
-4.1174006 -6.1942539 -1.3195281
-4.2158875 -4.2214098 -1.2322567
-2.9405532 -4.432179 -1.2152679
-3.3426664 -3.3423748 -1.2242558
-2.3911927 -3.610986 -1.2181873
-2.0150421 -3.0510447 -1.2276738
-4.147079 -6.1566238 -1.3169079
-4.2813983 -4.2347174 -1.2437862
-2.9720445 -4.4205251 -1.2170497
-3.3514035 -3.3102369 -1.2199936
-2.4122314 -3.5946474 -1.2176459
-2.0263429 -3.0275936 -1.2232176
-4.1803365 -6.1245561 -1.3155105
-4.3059001 -4.2069988 -1.2433817
-2.9969168 -4.398983 -1.2161589
-3.3633368 -3.2814984 -1.216985
-2.4250402 -3.5662458 -1.2130427
-2.0422213 -3.0111804 -1.221626
-4.2155972 -6.095551 -1.3148117
-4.3069692 -4.1566958 -1.2363021
-3.0044684 -4.3524313 -1.2083629
-3.3973491 -3.274235 -1.2219993
-2.4419611 -3.5441647 -1.2106059
-2.061733 -3.0001554 -1.2222626
-4.2478342 -6.0623126 -1.3132396
-4.30404 -4.1031604 -1.2282112
-3.0260894 -4.3267241 -1.2063583
-3.3935366 -3.2306333 -1.2134749
-2.4768863 -3.5480583 -1.2171043
-2.0741441 -2.9788907 -1.2187614
-4.2781124 -6.0264997 -1.3111435
-4.3234315 -4.0713029 -1.2265929
-3.0627258 -4.3223929 -1.2103676
-3.4259896 -3.2216871 -1.2179878
-2.5091717 -3.5477264 -1.2222489
-2.0983942 -2.9746289 -1.2222626
-4.310411 -5.993741 -1.309746
-4.3662581 -4.0613732 -1.2316498
-3.0920324 -4.3074789 -1.2114813
-3.4598787 -3.2137816 -1.2230022
-2.5308928 -3.5322638 -1.2222489
-2.1199138 -2.966325 -1.2241725
-4.3430481 -5.9616094 -1.3085233
-4.476192 -4.1126914 -1.2555182
-3.1080842 -4.2742329 -1.207472
-3.5023589 -3.2134347 -1.2310252
-2.5570426 -3.5229003 -1.2244151
-2.1419663 -2.9586368 -1.2264005
-4.5230989 -4.1048932 -1.2615864
